# .PCD v0.7 - Point Cloud Data file format
VERSION 0.7
FIELDS x y z intensity
SIZE 4 4 4 4
TYPE F F F F
COUNT 1 1 1 1
WIDTH 1341
HEIGHT 1
VIEWPOINT 0 0 0 1 0 0 0
POINTS 1341
DATA ascii
-30.781721 10.245683 2.8383138 23
-2.6427329 0.87963253 -0.44114518 1
-30.927023 10.294046 4.0021892 21
-30.783876 10.2464 -3.983665 5
-28.370956 9.4432611 4.7358971 4
-4.6976953 1.5636259 -0.43316403 4
-8.5780869 2.8552127 1.7573508 25
-7.6881819 2.5590081 -0.42465395 2
-8.6940231 2.8938019 2.1154397 22
-8.6205111 2.8693335 2.4344521 18
-1.6111395 0.54252142 -0.45552152 7
-27.221745 9.166419 0.50137275 11
-1.8653142 0.62811005 -0.45440114 3
-2.2122548 0.74493587 -0.45374379 2
-30.81752 10.37723 2.8449378 23
-2.6695998 0.8989383 -0.44615111 1
-30.892782 10.402573 4.0024328 7
-5.3448157 1.7997679 0.89324081 1
-4.7167554 1.5882801 -0.43543008 2
-8.5643473 2.8838854 1.7565876 19
-7.6186318 2.5654333 -0.42130443 2
-8.6801758 2.9228885 2.1145399 31
-1.614722 0.55001074 -0.45707443 7
-1.8631104 0.63461739 -0.45440114 3
-2.1799066 0.74252528 -0.44763792 1
-2.677665 0.91207302 -0.4480283 1
-30.591333 10.420097 -3.9680657 5
-7.6398802 2.6023154 -0.42297921 2
-8.7049685 2.9651084 2.1230881 19
-1.5853949 0.54620475 -0.44930986 7
-25.958426 8.9432707 0.47924307 10
-1.8608838 0.64111698 -0.45440114 3
-2.1698766 0.74757206 -0.44611144 1
-30.420322 10.480496 2.8149562 23
-2.6557884 0.91497982 -0.44489962 1
-5.4015136 1.8609447 0.70147991 16
-3.3707845 1.1613123 -0.43775469 1
-5.2966356 1.8248121 0.88729626 85
-30.756933 10.596467 6.32341 21
-7.5514398 2.6016436 -0.41858298 2
-8.9322424 3.0773616 2.1811254 21
-9.3388529 3.2174482 2.6466835 33
-1.5907757 0.55427808 -0.4513804 7
-25.853403 9.0081673 0.47788179 30
-1.8733565 0.65273839 -0.45800033 3
-2.167254 0.75514179 -0.44611144 1
-30.654482 10.68102 2.8400571 23
-2.6301937 0.91644514 -0.44114518 1
-5.3893609 1.8778287 0.70074874 35
-3.3667102 1.1730715 -0.43775469 1
-5.2995605 1.8465395 0.88886064 83
-30.714195 10.701826 6.3222651 31
-8.9232864 3.1091633 2.1815753 19
-9.1104746 3.174386 2.5850847 24
-1.5924754 0.56111151 -0.4524157 7
-25.850092 9.108326 0.47840536 10
-1.8379829 0.64761651 -0.44990212 3
-2.1868248 0.77053159 -0.45069084 2
-30.598221 10.781338 2.8383138 23
-2.6381574 0.92955947 -0.4430224 1
-5.3659229 1.8906925 0.69855505 42
-30.323267 10.684457 -3.9475918 5
-5.2949457 1.8656836 0.88917351 78
-30.635916 10.79462 6.3138695 31
-8.9087029 3.1389973 2.1806755 3
-23.124762 8.1480513 -0.42796791 8
-9.0774746 3.1984642 2.5788729 18
-1.5868675 0.5653702 -0.4513804 7
-25.763514 9.1790419 0.47739312 20
-1.8393824 0.65533638 -0.45080191 3
-2.1693268 0.7728892 -0.44763792 1
-30.549139 10.884068 2.8372681 23
-2.6386182 0.94008863 -0.44364813 1
-5.3424606 1.9034154 0.69636142 55
-30.304487 10.796903 -3.9500291 5
-5.2939835 1.8861439 0.8901121 88
-30.583254 10.896222 6.3108168 10
-9.3474407 3.3303123 2.2909014 6
-26.486858 9.4367552 -0.49079657 10
-9.2409554 3.2923737 2.6285663 30
-1.5921544 0.57352477 -0.45345098 7
-25.735079 9.2702723 0.47746295 20
-1.8444173 0.6643948 -0.45260152 3
-2.1592274 0.77779543 -0.44611144 2
-5.2916656 1.9061602 0.49208131 13
-2.6130188 0.94125986 -0.43989372 1
-5.3376517 1.9227252 0.69660515 56
-30.22179 10.886473 -3.9441795 5
-5.2873673 1.9046119 0.8901121 74
-9.3775854 3.3779874 1.9374745 32
-9.3467588 3.3668833 2.293601 30
-26.423655 9.5183105 -0.4902381 10
-9.3039246 3.3514535 2.6497893 28
-1.5756209 0.57379055 -0.44930986 7
-25.753294 9.3785229 0.47840536 10
-1.8384248 0.66949528 -0.45170173 3
-5.3166637 1.9361583 0.29653552 31
-2.150965 0.78331238 -0.44496658 2
-5.2475371 1.9109846 0.4885951 35
-2.6319909 0.95848656 -0.44364813 1
-5.27495 1.9209673 0.68929303 50
-30.146301 10.978315 -3.9393046 5
-5.2361398 1.906834 0.88260323 60
-5.3017783 1.9307375 1.09677 44
-9.3459358 3.4034901 2.2963004 48
-9.3855028 3.4178989 -0.17434955 4
-9.3121367 3.3911815 2.6554835 20
-1.5736084 0.57928699 -0.44930986 7
-9.3566256 3.4444222 0.1740354 42
-1.8360766 0.67590851 -0.45170173 3
-5.2686386 1.9395256 0.29423276 43
-2.1666415 0.79759818 -0.44878277 2
-5.20718 1.916901 0.48545748 67
-2.6137991 0.96220875 -0.44114518 1
-5.2570348 1.9352541 0.68783057 50
-3.3457246 1.23165 -0.43775469 1
-5.236867 1.9278296 0.88385475 76
-5.2931638 1.9485542 1.0963885 74
-9.3752155 3.4512653 -0.52356893 4
-9.3102255 3.4273407 2.2904515 13
-9.3678856 3.4485672 -0.17424482 52
-9.6011868 3.5344515 2.7414112 11
-1.588078 0.59028542 -0.45396861 7
-9.3157682 3.4626527 0.17347692 18
-1.8339441 0.68167335 -0.45170173 3
-5.2063556 1.9351921 0.29109257 52
-2.1457226 0.79756081 -0.44496658 2
-5.1861916 1.9276971 0.484063 75
-2.6144664 0.97179198 -0.44177094 1
-5.2137151 1.9379275 0.6829558 56
-9.348217 3.4747136 -1.2245432 21
-5.232636 1.9449604 0.88416761 90
-4.1926541 1.5584011 -0.39132929 3
-5.2612529 1.9555973 1.0910459 77
-9.3381166 3.4709594 -0.52210349 14
-5.2333164 1.9452133 1.2889695 26
-9.3438845 3.4731033 -0.17400049 60
-9.7004948 3.6056545 2.7729874 12
-1.5805825 0.59378707 -0.4524157 7
-5.2676864 1.9789438 0.098222144 34
-1.8206079 0.68395889 -0.4490023 3
-5.171524 1.9428179 0.2895225 57
-2.1631417 0.81264073 -0.44916436 2
-5.1850266 1.9478905 0.48458594 85
-9.3606071 3.5165565 -1.5837425 1
-5.1864777 1.9484357 0.68027467 68
-9.3248816 3.5031352 -1.2230808 19
-5.2073231 1.9562669 0.8810389 81
-4.1648073 1.5646186 -0.38923755 22
-5.2507191 1.9725697 1.0902826 37
-9.3035078 3.4951057 -0.52084744 21
-5.1754155 1.9442799 1.2763723 38
-5.3088694 1.9944153 -0.098990053 5
-9.7475281 3.6619134 2.7900693 5
-1.5857244 0.60204351 -0.45448625 7
-5.2383122 1.9888021 0.097803287 39
-1.8327842 0.6958434 -0.45260152 3
-5.1479058 1.9544779 0.28858048 71
-2.1382668 0.81182438 -0.44458497 2
-5.1726074 1.9638562 0.484063 82
-2.5817637 0.98020446 -0.43739077 1
-5.1685095 1.9623004 0.67881227 68
-9.4499283 3.5878038 -1.2411174 2
-5.1967692 1.9730296 0.88041317 78
-4.1406937 1.572075 -0.38749444 29
-5.2217765 1.9825239 1.0857031 70
-5.1740627 1.9644088 1.277722 34
-5.2813106 2.005127 -0.098606095 77
-9.7527466 3.7027733 2.7952456 5
-1.558362 0.5978871 -0.44723931 7
-5.1753283 1.985586 0.096756138 53
-1.8194275 0.69804847 -0.44990212 3
-5.1410518 1.9724355 0.28858048 71
-2.1335871 0.81858015 -0.44420335 2
-5.1564198 1.9783317 0.48319143 85
-5.2820654 2.0265372 -0.89605659 3
-5.1597748 1.9796189 0.67856848 82
-3.3286479 1.2770817 -0.43775469 1
-5.1769404 1.9862046 0.87822306 74
-4.1109986 1.5772413 -0.3852284 33
-5.2148242 2.0007393 1.0857031 70
-4.178853 1.6032746 -0.23456976 10
-5.1653547 1.9817595 1.2772721 38
-5.2630773 2.0192523 -0.098396666 68
-9.9075031 3.8011501 2.8433859 12
-1.5561601 0.60359472 -0.44723931 7
-5.1456437 1.9958636 0.096337281 52
-1.838659 0.71316886 -0.45530093 3
-5.1393743 1.9934319 0.28889447 77
-2.1287422 0.82568467 -0.44382173 2
-5.1454191 1.9957765 0.4828428 85
-2.5894172 1.0043687 -0.43989372 1
-5.1432309 1.9949278 0.67734981 85
-3.3239448 1.2892733 -0.43775469 1
-5.1990929 2.0165951 0.88322902 67
-4.0921874 1.5872548 -0.3840082 36
-5.2312512 2.0290685 1.0906643 64
-4.159914 1.6135243 -0.23383705 21
-5.163507 2.0027924 1.2786218 46
-4.179903 1.6212776 -0.078256592 10
-29.984901 11.630377 8.6176386 30
-1.5612384 0.61184263 -0.44930986 7
-5.1702962 2.026217 0.096930668 17
-1.8143858 0.71105003 -0.44990212 3
-5.1361036 2.0128171 0.28910384 56
-2.1240191 0.832394 -0.44344011 2
-5.1402764 2.0144522 0.48301712 82
-2.5858955 1.0134014 -0.43989372 1
-5.1232982 2.0077987 0.67564362 78
-5.2030568 2.0390558 0.88510621 81
-4.0717816 1.5957137 -0.38261372 40
-5.2186527 2.0451677 1.0895194 61
-4.1226439 1.6156465 -0.23205763 28
-5.158299 2.0215151 1.2790717 45
-4.1556001 1.6285619 -0.07790754 27
-29.900953 11.718055 8.605216 24
-1.5733539 0.62325257 -0.45345098 7
-4.1514626 1.6445185 0.077942446 20
-1.8008969 0.71338916 -0.44720268 3
-5.1231213 2.0294216 0.28878981 33
-2.1264298 0.84234244 -0.44458497 2
-5.1421204 2.0369477 0.48388869 85
-2.5564523 1.0126872 -0.43551356 1
-5.1122141 2.0251009 0.67515618 85
-5.1955485 2.0581121 0.88510621 74
-4.0659056 1.6106268 -0.38261372 40
-5.2184229 2.0671735 1.0910459 67
-4.10741 1.627068 -0.23153427 36
-5.1417961 2.0368192 1.2768222 50
-4.1421666 1.6408361 -0.077767923 40
-10.233985 4.0539875 2.9495018 31
-1.5675817 0.62730527 -0.4524157 7
-4.1456966 1.6589997 0.077942446 33
-1.8237252 0.72980732 -0.45350131 3
-4.1554804 1.6629149 0.23456976 33
-2.1143627 0.84611291 -0.44267687 2
-5.1331286 2.0541444 0.48371437 82
-2.5492339 1.020137 -0.43488783 2
-5.101428 2.0414584 0.67466867 81
-5.1699929 2.0688965 0.8819775 67
-4.0547094 1.622589 -0.38209078 42
-5.2221117 2.0897529 1.0933355 70
-4.1054139 1.6428797 -0.23174362 42
-5.1328459 2.0540311 1.2763723 50
-4.127131 1.6515703 -0.077593401 44
-29.782257 11.918083 8.5953808 41
-1.5566466 0.62861001 -0.44982749 7
-4.1349015 1.6697693 0.077837735 36
-1.8105817 0.73115492 -0.45080191 3
-4.1576433 1.6789529 0.23498844 45
-2.1062329 0.85054576 -0.44153202 2
-5.1155658 2.0657842 0.48266849 82
-2.5606697 1.0340579 -0.43739077 1
-5.1115551 2.0641646 0.67686236 85
-3.3058529 1.3349801 -0.43775469 1
-5.1707945 2.0880868 0.88322902 81
-4.0477443 1.6345731 -0.38191646 52
-5.2045979 2.1017375 1.0910459 50
-4.1020846 1.656517 -0.23184828 43
-5.1426301 2.0767136 1.2804214 46
-4.1145053 1.6615328 -0.077453777 46
-29.716007 12.000013 8.5870981 41
-1.545499 0.63039184 -0.44723931 7
-4.1271963 1.6834373 0.077802829 40
-1.8152361 0.74041456 -0.45260152 3
-4.1499081 1.6927012 0.23488377 37
-2.1032512 0.85789269 -0.44153202 2
-5.1027889 2.0813708 0.48214558 85
-2.538754 1.0355294 -0.43426207 1
-5.0969667 2.0789959 0.67588741 77
-3.3011727 1.3465116 -0.43775469 1
-5.1396961 2.0964248 0.87916172 57
-4.0327897 1.64493 -0.38104489 59
-5.1954122 2.1191506 1.0906643 77
-4.0925784 1.6693172 -0.23163894 47
-5.1588073 2.1042199 1.2862701 13
-4.1123834 1.6773955 -0.077523589 44
-29.650684 12.094184 8.580369 41
-1.5449642 0.63678831 -0.44775695 7
-4.1154518 1.6962669 0.077698112 33
-1.7908897 0.73815149 -0.44720268 4
-4.1381364 1.7056167 0.23456976 13
-2.103723 0.86709201 -0.44229525 2
-5.1043363 2.1038556 0.48301712 75
-4.0708823 1.6778965 -0.69738483 3
-5.0984888 2.1014454 0.67710608 71
-3.2962153 1.3586019 -0.43775469 1
-5.1484151 2.1220236 0.8819775 64
-4.037786 1.6642554 -0.38209078 68
-5.1930556 2.1404231 1.091809 55
-4.080893 1.6820227 -0.23132493 43
-5.1888957 2.1387086 1.2957181 8
-4.1191497 1.697791 -0.077767923 40
-29.559719 12.183638 8.5669107 29
-1.542732 0.64217734 -0.44775695 7
-4.1168904 1.7136961 0.077837735 20
-1.784704 0.74290061 -0.44630289 3
-5.1721115 2.1529422 0.2936047 56
-2.1188085 0.88197482 -0.44611144 2
-5.1079979 2.1262543 0.484063 82
-4.0868845 1.7012058 -0.70113927 3
-5.0874572 2.1177042 0.67661858 74
-3.2914529 1.3700995 -0.43775469 1
-5.1537423 2.1452959 0.88416761 61
-4.0448279 1.6836994 -0.38331094 49
-5.1801147 2.1562738 1.0906643 34
-4.0657773 1.6924198 -0.23080157 36
-29.514183 12.285568 7.3806443 45
-4.1205826 1.7152331 -0.07790754 36
-29.46529 12.265216 8.551899 5
-1.5512801 0.65177959 -0.45086277 7
-4.1093416 1.7265642 0.077802829 2
-1.7858238 0.75032449 -0.44720268 3
-5.1428475 2.1607978 0.29234865 64
-2.101392 0.8829124 -0.44305849 2
-5.1045923 2.1447248 0.48441163 67
-4.0721149 1.7109233 -0.69957495 1
-5.104198 2.1445591 0.67978722 79
-3.2868915 1.381007 -0.43775469 1
-5.1229248 2.1524272 0.88010031 60
-4.0520802 1.7025056 -0.38453114 42
-5.0227075 2.1103203 1.0589899 6
-4.0840802 1.7159505 -0.2321623 33
-29.439144 12.369031 7.3720961 22
-4.1130285 1.7281134 -0.077872634 21
-27.933729 11.736522 8.1186361 5
-1.5329899 0.65039986 -0.44620404 7
-5.2243767 2.2165403 0.099059857 16
-1.7903697 0.75959808 -0.4490023 3
-5.1224031 2.1732762 0.29161596 70
-2.101912 0.89177579 -0.44382173 2
-5.0860701 2.1578612 0.48336574 61
-2.542233 1.0785903 -0.43739077 1
-5.103991 2.1654644 0.68076217 64
-3.2820506 1.3924719 -0.43775469 1
-5.1517496 2.1857269 0.88635767 67
-4.0296054 1.7096361 -0.38296235 43
-5.0135031 2.127073 1.0586083 6
-4.0946131 1.7372168 -0.23310435 26
-29.356323 12.454973 7.3621979 15
-4.1143346 1.7455841 -0.078012258 4
-29.244183 12.407396 8.5120411 5
-1.5271587 0.65422559 -0.44516876 7
-5.1780071 2.2182269 0.098326854 33
-1.7912899 0.76737779 -0.44990212 3
-5.1147857 2.1911435 0.29161596 77
-2.0789354 0.89060336 -0.43962392 2
-5.0913267 2.1810937 0.48458594 78
-2.5202947 1.079679 -0.43426207 1
-5.1237717 2.1949928 0.68441826 49
-3.2771702 1.4039199 -0.43775469 1
-5.133194 2.1990294 0.88448048 57
-4.0309386 1.7268299 -0.38365957 45
-5.0547729 2.1654341 1.068912 1
-4.092196 1.753072 -0.23331369 14
-29.319832 12.560439 7.3639979 45
-15.467849 6.6263332 -0.293724 5
-29.115458 12.472887 8.4871941 5
-1.5266389 0.66031927 -0.4456864 7
-5.1427021 2.2243803 0.097803287 50
-1.7886003 0.77362585 -0.44990212 3
-5.0961075 2.2042267 0.29098791 77
-2.0866256 0.90253115 -0.44191363 2
-5.0928254 2.2028072 0.48545748 75
-2.5001931 1.0814122 -0.43144625 2
-5.1434078 2.2246857 0.68807429 45
-3.2722495 1.4153508 -0.43775469 1
-5.1653738 2.2341866 0.89136356 33
-4.0376873 1.7464267 -0.38487977 40
-5.1751194 2.2384019 1.0960069 45
-4.1007166 1.7736889 -0.23415107 1
-29.238249 12.646462 7.3545499 15
-5.1885862 2.2442267 -0.098675907 2
-29.071743 12.574443 8.4871941 5
-1.5262113 0.66615099 -0.44620404 7
-5.1078062 2.2294228 0.097279713 53
-1.7645928 0.77019823 -0.44450328 3
-5.0759563 2.2155211 0.29025522 75
-2.0962164 0.91494316 -0.44458497 1
-5.0873189 2.2204804 0.48563179 70
-5.1470737 2.246562 -0.88948637 3
-29.104012 12.703134 3.8990877 48
-3.2675381 1.4261942 -0.43775469 1
-5.0547414 2.2062614 0.87353003 32
-4.05196 1.7685736 -0.38679719 35
-5.1856613 2.2634046 1.099823 46
-15.451189 6.7440367 -0.88353562 3
-29.172934 12.733216 7.348701 22
-5.15729 2.2510211 -0.098222144 57
-27.822371 12.143731 8.1341648 5
-1.5344837 0.67614824 -0.44930986 7
-5.0853539 2.2407882 0.097000472 60
-1.7725933 0.78106779 -0.44720268 3
-5.055398 2.2275887 0.2895225 70
-2.0570784 0.90642208 -0.43695259 1
-5.1014156 2.2478657 0.48772353 56
-5.1283545 2.2597358 -0.88760918 7
-29.054043 12.802247 3.8983564 68
-5.148128 2.2684486 -0.69075543 10
-5.0307403 2.2167237 0.87071425 55
-4.062171 1.7899373 -0.38836598 26
-15.398312 6.7850447 -0.88186085 3
-29.097992 12.821612 7.3410525 15
-5.1274419 2.2593338 -0.097803287 57
-27.901793 12.294524 8.1698818 16
-1.5215235 0.67678964 -0.44620404 7
-5.0775008 2.2585256 0.097000472 70
-1.7734171 0.78883451 -0.4481025 3
-5.043942 2.2435982 0.28931317 61
-2.0754275 0.92317188 -0.44153202 2
-5.1281261 2.2810442 0.49103546 55
-5.1294599 2.2816374 -0.88917351 5
-28.983786 12.892292 3.8949442 61
-5.1274819 2.2807577 -0.68904924 25
-4.9995084 2.2238338 0.86664695 54
-4.0777431 1.8138229 -0.39045772 14
-26.535694 11.803355 5.6452751 26
-15.392782 6.8468709 -0.88290757 3
-29.035254 12.915185 7.3365536 37
-5.0829821 2.2609639 -0.09710519 79
-27.842821 12.384779 8.1652231 26
-1.515627 0.68051404 -0.44516876 7
-5.0513439 2.2680449 0.096651427 64
-1.7777638 0.79821295 -0.44990212 3
-5.0379014 2.2620094 0.28941783 47
-2.0775654 0.93282336 -0.44267687 2
-5.1146798 2.2964826 0.49051252 16
-5.0836205 2.2825372 -0.88260323 7
-28.920498 12.985254 3.8925068 100
-5.0923257 2.2864456 -0.68539321 20
-5.0007257 2.2453175 0.86821127 47
-4.2004352 1.8859884 -0.40283385 11
-26.454929 11.878219 5.6368794 25
-28.954439 13.000494 7.3275557 15
-5.0714107 2.2770548 -0.097035378 100
-27.771223 12.469233 8.1569414 32
-1.5097232 0.68420553 -0.44413349 7
-5.0270038 2.2782345 0.096337281 63
-1.7678668 0.80119598 -0.4481025 4
-5.064539 2.2952454 0.2914066 50
-2.0760846 0.94088012 -0.44305849 2
-5.0666261 2.2961915 -0.8810389 11
-28.851488 13.075475 3.8893383 100
-5.0698485 2.2976518 -0.68344325 30
-26.893061 12.187916 4.6764517 30
-4.2065296 1.9063962 -0.40405402 9
-26.381119 11.955904 5.6300101 25
-5.0881882 2.3059633 -0.29276735 10
-28.880484 13.088614 7.3203573 22
-5.0798235 2.3021724 -0.097349524 77
-27.702894 12.554932 8.1496944 26
-1.5108393 0.69107842 -0.44516876 7
-5.0172019 2.2949364 0.096302375 64
-1.7579708 0.80411971 -0.44630289 3
-5.0564961 2.3129101 0.2914066 45
-2.0549343 0.93995488 -0.4392423 2
-28.476717 13.025638 2.7396536 21
-5.047802 2.308933 -0.87916172 5
-28.773178 13.161242 3.8849509 96
-5.0690184 2.3186378 -0.68441826 45
-26.86652 12.289111 4.6792679 13
-4.2197795 1.9301845 -0.40597144 3
-26.32851 12.043018 5.6277204 25
-5.0710263 2.3195562 -0.29224399 70
-28.416393 12.998044 7.2141805 14
-5.0608459 2.3148997 -0.097140096 68
-27.644846 12.645128 8.1455526 26
-1.5082963 0.69661129 -0.44516876 7
-5.0250959 2.3208561 0.096616521 49
-1.7514734 0.80892342 -0.4454031 3
-15.379673 7.1031494 0.88782716 12
-2.0514755 0.94748026 -0.4392423 2
-28.421549 13.12658 2.7389565 21
-5.0195785 2.3183079 -0.87572014 7
-28.384136 13.109301 3.8388844 20
-5.0532775 2.3338718 -0.68344325 30
-28.377924 13.106432 4.9508381 30
-4.2217207 1.9498147 -0.40684301 1
-26.28063 12.13779 5.6269574 25
-5.0878758 2.3498511 -0.2937094 91
-28.3951 13.114365 7.2209287 22
-5.0559583 2.3351099 -0.097209901 60
-27.58779 12.741507 8.1424475 26
-1.5093575 0.7035042 -0.44620404 7
-1.7521716 0.81667876 -0.44630289 3
-15.407282 7.1812601 0.89086264 61
-2.0321405 0.94717091 -0.43580773 2
-28.339439 13.208877 2.7354701 21
-5.0186172 2.3391533 -0.8769716 7
-28.334604 13.206623 3.8383968 27
-5.0361037 2.3473036 -0.68222457 28
-28.443008 13.25715 4.9702358 25
-5.0853157 2.3702412 -0.49086115 16
-26.230984 12.226135 5.6254306 25
-5.0941243 2.374347 -0.29454675 97
-28.681213 13.368176 7.3055105 30
-5.058651 2.3578129 -0.097419336 66
-27.518633 12.826303 8.1352005 21
-1.49303 0.70193011 -0.44206291 7
-1.7459267 0.82082647 -0.4454031 3
-15.397843 7.2391114 0.89170003 37
-2.0307651 0.95473981 -0.43618935 2
-28.255814 13.284131 2.7316353 21
-5.0304971 2.3650277 -0.88041317 5
-28.173885 13.245613 3.8225539 54
-5.0390706 2.3690586 -0.68368703 30
-28.659889 13.474103 5.0159149 51
-5.0557909 2.3769195 -0.48876941 16
-26.161869 12.299688 5.6193247 25
-5.0970674 2.3963251 -0.29517481 100
-28.633198 13.461555 7.3046107 45
-5.0689015 2.3830831 -0.097768381 55
-27.460213 12.910089 8.1305418 31
-1.5115155 0.71707386 -0.44827458 7
-21.850166 10.365876 0.42213881 7
-1.7536148 0.83192748 -0.4481025 3
-15.423006 7.3167853 0.89463085 24
-2.0628955 0.97865248 -0.44382173 2
-28.191271 13.374142 2.7298923 21
-2.4415011 1.1582658 -0.42800468 1
-28.505905 13.523407 3.8739827 100
-5.0397382 2.390888 -0.68490571 17
-28.603758 13.569829 5.0143504 41
-5.0366626 2.3894291 -0.48772353 16
-26.09749 12.380837 5.6147456 25
-5.085063 2.4123905 -0.29496545 100
-28.564905 13.551397 7.299212 30
-27.399273 12.998412 8.1258831 26
-1.5055182 0.72067744 -0.44723931 7
-21.741701 10.407548 0.4207426 7
-1.7577311 0.84140933 -0.44990212 3
-15.417189 7.3800631 0.89578223 20
-2.0382168 0.97567523 -0.4392423 1
-28.139023 13.469886 2.7293692 42
-2.4445703 1.1701928 -0.42925617 1
-28.43704 13.612544 3.8710577 100
-5.0528479 2.4187508 -0.68783057 2
-28.483164 13.634623 5.0015225 20
-5.0336828 2.4095764 -0.48824647 16
-26.027552 12.459144 5.6090212 34
-5.080214 2.4318507 -0.29517481 89
-28.50161 13.643453 7.2951627 15
-27.336308 13.085633 8.1207066 26
-1.4960351 0.7225675 -0.44516876 7
-1.7267067 0.83397919 -0.44270366 3
-15.423706 7.4494696 0.89766634 20
-2.0312631 0.9810763 -0.43847907 2
-28.086451 13.565428 2.7288463 42
-2.4582584 1.1873101 -0.43238485 1
-28.355387 13.695321 3.8664267 89
-27.658257 13.358615 -3.7713687 10
-28.447847 13.739978 5.0037127 40
-5.0467701 2.437531 -0.49033821 4
-25.971527 12.543944 5.6063499 25
-5.066299 2.4469631 -0.29486078 46
-28.383619 13.708957 7.2771668 15
-27.26263 13.167532 8.1124239 26
-1.4900305 0.7260927 -0.44413349 7
-1.7377996 0.84683073 -0.44630289 3
-15.440699 7.524261 0.90017843 20
-2.0348854 0.99160081 -0.44000554 1
-28.006687 13.647675 2.7257087 21
-2.4540989 1.1958838 -0.43238485 1
-28.291349 13.78639 3.8642333 61
-27.591827 13.445513 -3.7686875 15
-28.35532 13.817563 4.9958911 30
-5.0650964 2.4682243 -0.49295288 2
-25.920523 12.631085 5.6048236 25
-15.072636 7.3449035 -0.8787207 3
-28.346104 13.813072 7.2798662 37
-27.192188 13.250769 8.1051769 26
-1.4840195 0.72958481 -0.44309822 7
-1.7313354 0.85117209 -0.4454031 3
-15.471696 7.6063108 0.90352798 20
-2.0278881 0.99696553 -0.4392423 2
-27.944574 13.738321 2.7243142 21
-2.421546 1.1904986 -0.42737895 1
-28.237709 13.882434 3.863502 61
-27.525129 13.53211 -3.7660065 15
-28.285641 13.905999 4.9921365 20
-25.837513 12.702432 5.5964279 25
-6.9023981 3.3934088 -0.40309155 2
-28.292469 13.909355 7.2785163 45
-27.118031 13.331969 8.0968952 21
-1.4815919 0.73450196 -0.44309822 7
-1.7285032 0.85690868 -0.4454031 3
-15.471439 7.6699948 0.90499336 20
-2.010499 0.99670869 -0.43618935 1
-27.877441 13.820293 2.7222226 21
-2.4175847 1.1985221 -0.42737895 1
-28.173733 13.96718 3.8610644 100
-27.458761 13.612732 -3.7630816 15
-28.237602 13.998844 4.9918237 35
-25.763588 12.772346 5.5895586 25
-6.866055 3.4038596 -0.40162614 30
-28.211269 13.985788 7.2695184 30
-27.059824 13.414958 8.0927544 26
-1.4928417 0.74658203 -0.44723931 7
-21.451324 10.727979 0.41864833 7
-1.7080723 0.85422057 -0.44090408 4
-15.48923 7.7462873 0.90761018 38
-2.021055 1.0107458 -0.4392423 2
-27.825466 13.915737 2.7218738 21
-2.4204533 1.2104881 -0.42863044 1
-28.101725 14.053897 3.8578959 100
-27.403976 13.704947 -3.7621067 15
-25.672707 12.839126 4.5462985 8
-25.701288 12.853418 5.5857425 25
-6.8523455 3.4269125 -0.40152144 33
-28.157049 14.081564 7.2681684 15
-26.995554 13.500691 8.0875778 26
-1.4900953 0.75204855 -0.44723931 7
-21.436853 10.819143 0.419137 7
-1.7153683 0.86574346 -0.44360349 3
-15.501744 7.8237038 0.91001761 38
-2.0068207 1.012839 -0.43695259 2
-27.809849 14.035583 2.7253602 21
-2.4301085 1.2264717 -0.43113339 1
-28.035849 14.149645 3.8559461 100
-27.319889 13.788301 -3.7574756 15
-28.043242 14.153376 4.9752417 20
-25.638231 12.939571 5.5823078 34
-6.8415222 3.4529045 -0.40162614 38
-26.489044 13.368975 6.8502097 42
-26.94244 13.597804 8.0865421 31
-1.4771315 0.75198674 -0.44413349 7
-21.374008 10.881206 0.41864833 7
-1.726229 0.87879872 -0.44720268 4
-15.531297 7.9067631 0.91336709 68
-1.9805285 1.0082591 -0.43199158 2
-27.753584 14.128957 2.7246628 42
-2.4328542 1.2385316 -0.43238485 1
-27.972134 14.240217 3.853996 100
-27.262747 13.879079 -3.7562568 15
-28.032394 14.270895 4.9821248 15
-15.585756 7.9344878 -1.5301062 4
-25.557915 13.011172 5.5746756 34
-6.8312073 3.4776709 -0.40173081 33
-26.435268 13.457821 6.8484101 77
-26.870708 13.679498 8.0792952 26
-1.4711924 0.75511664 -0.44309822 7
-21.302227 10.933762 0.41795024 7
-1.7233053 0.88451827 -0.44720268 3
-15.540528 7.9764633 0.91546053 46
-1.9998802 1.0264754 -0.43695259 1
-27.720758 14.228191 2.7260573 21
-2.400615 1.2321601 -0.42737895 1
-27.917694 14.329272 3.8530211 75
-27.214808 13.968502 -3.7560132 15
-27.974371 14.358363 4.9802475 35
-25.486683 13.081511 5.5685697 34
-6.8231912 3.5021288 -0.40194014 33
-26.381828 13.54096 6.8461604 89
-6.9453731 3.564841 -0.13626839 7
-26.811449 13.761472 8.0751543 26
-1.4651163 0.75847119 -0.44206291 7
-1.7132849 0.88694471 -0.4454031 3
-15.548064 8.0490255 0.91755396 4
-1.992798 1.0316449 -0.43618935 2
-27.732851 14.356927 2.7321582 64
-2.4033165 1.2441648 -0.42863044 1
-27.846352 14.415685 3.8500962 100
-27.141201 14.050638 -3.7526009 21
-27.927589 14.457741 4.9808736 45
-25.437376 13.168591 5.5678067 17
-6.7878671 3.5139883 -0.40057942 30
-26.3344 13.632968 6.8461604 100
-6.9169044 3.5807891 -0.13595425 26
-26.752954 13.849648 8.0720482 31
-1.4624598 0.76358074 -0.44206291 7
-6.9203167 3.6132414 0.13626839 28
-1.6998137 0.88750815 -0.44270366 5
-21.319908 11.131569 1.2604592 9
-1.996146 1.0422294 -0.43771583 2
-27.601324 14.411227 2.7241399 42
-2.3849504 1.2452322 -0.42612749 1
-27.771225 14.499936 3.846684 100
-27.843681 14.537766 4.9749289 40
-6.9444847 3.6258602 -0.68539274 2
-25.382553 13.25276 5.5658984 8
-6.7720184 3.5358121 -0.40037006 19
-26.240011 13.700457 6.834013 68
-6.907908 3.6067629 -0.13602406 30
-26.697598 13.939373 8.0699778 31
-1.4597856 0.76868105 -0.44206291 7
-6.9112005 3.6392393 0.1363382 33
-1.6898082 0.88980436 -0.44090408 3
-21.217302 11.172421 1.256691 9
-1.9942329 1.0501057 -0.43809745 2
-27.593163 14.529765 2.7283235 42
-2.4120507 1.2701164 -0.43175912 1
-27.71166 14.592163 3.8454652 100
-6.9186935 3.6431849 -0.9600867 4
-27.752565 14.613702 4.9677329 30
-4.8021832 2.5286915 -0.47482449 2
-4.7750416 2.5143995 -0.2828235 68
-26.190304 13.791059 6.8335633 48
-6.8864293 3.6261954 -0.13584954 30
-26.629974 14.022578 8.0642834 31
-1.453681 0.77195984 -0.44102764 7
-6.9002213 3.6642797 0.1363731 21
-1.6970186 0.90118134 -0.44360349 3
-21.164063 11.238921 1.2558537 9
-1.9801515 1.0515357 -0.43580773 2
-27.62146 14.668045 2.7361674 86
-2.3831775 1.2655578 -0.42737895 1
-27.657049 14.686943 3.8449779 100
-6.9252195 3.6775548 -0.96276784 7
-27.645555 14.68084 4.9577212 25
-4.763413 2.5295532 -0.47186118 20
-26.052345 13.834785 5.7338104 9
-4.7715273 2.5338624 -0.28313753 93
-26.107582 13.864118 6.8245649 13
-6.8790278 3.6530252 -0.13595425 26
-26.558685 14.10367 8.0575542 26
-1.4407594 0.77155739 -0.43792182 7
-6.883863 3.6864555 0.13630329 3
-1.70417 0.91261941 -0.44630289 4
-21.138786 11.320271 1.256691 9
-1.9730076 1.0565877 -0.4350445 2
-27.552526 14.754967 2.7344244 100
-2.3613315 1.2645434 -0.42425027 1
-27.570614 14.764652 3.8401029 87
-6.9228401 3.7073288 -0.96423024 2
-27.552349 14.754871 4.950212 20
-4.7527976 2.5452247 -0.47168687 27
-26.028124 13.938616 5.7391529 9
-4.7644143 2.5514455 -0.2832422 100
-27.624046 14.793266 7.234426 14
-6.8873887 3.6883435 -0.1363731 18
-26.483746 14.182611 8.0497904 31
-1.4448568 0.78025371 -0.43999237 7
-1.6735389 0.90374702 -0.43910447 3
-21.099144 11.393991 1.256691 9
-1.9658524 1.0616026 -0.43428126 2
-27.500854 14.851053 2.7344244 100
-2.3603792 1.2746555 -0.424876 1
-27.511921 14.857029 3.839128 100
-26.832464 14.490108 -3.7443137 5
-27.448532 14.822798 4.9408259 19
-4.7456374 2.5627463 -0.47186118 31
-25.981037 14.030318 5.7395344 18
-4.7308755 2.5547745 -0.28177679 100
-27.568811 14.887751 7.2335262 44
-6.8744717 3.7123625 -0.1363731 3
-26.432379 14.274053 8.0492725 26
-1.4455175 0.78714019 -0.44102764 7
-1.6635283 0.90585548 -0.43730485 5
-1.9845493 1.0806638 -0.4392423 1
-27.452347 14.948864 2.7347729 100
-2.3697941 1.2904445 -0.42737895 1
-27.435486 14.939682 3.8357158 100
-26.816587 14.602668 -3.7491884 5
-27.365396 14.901516 4.9351945 14
-4.7349129 2.5783432 -0.47168687 29
-25.909489 14.108719 5.7345734 27
-4.718421 2.5693626 -0.28156745 100
-25.043631 13.637225 6.5834174 13
-16.69092 9.088851 -0.33173534 45
-26.368818 14.358841 8.0451307 26
-1.4495347 0.79590034 -0.44309822 7
-14.590729 8.0113754 0.29054767 123
-1.6740216 0.91916007 -0.44090408 4
-1.944626 1.0677416 -0.43122834 2
-27.379042 15.033092 2.7326813 100
-2.3583491 1.2949058 -0.42612749 1
-27.376209 15.031537 3.8347409 87
-26.657568 14.63695 -3.7340767 5
-27.295898 14.987441 4.932066 19
-4.7293773 2.5967731 -0.4720355 29
-25.856642 14.197184 5.7338104 36
-4.7094235 2.5858173 -0.28156745 100
-27.424915 15.058281 7.2231784 36
-16.632799 9.1326208 -0.33121178 100
-26.304989 14.443359 8.0409899 25
-1.4433674 0.79908389 -0.44206291 7
-14.573172 8.0680685 0.29075709 85
-1.653754 0.91555917 -0.43640503 5
-1.9460398 1.0773758 -0.4323732 2
-27.305483 15.116991 2.7305894 100
-2.3434453 1.2973894 -0.42425027 1
-27.311415 15.120276 3.8330345 100
-26.651468 14.754912 -3.7404139 5
-27.222679 15.071149 4.9283113 19
-4.7063389 2.605546 -0.47064102 24
-25.800056 14.28355 5.7322841 27
-4.7073579 2.6061099 -0.28198612 99
-27.353432 15.143537 7.2182293 29
-26.237511 14.525736 8.0358133 25
-1.4270744 0.79658461 -0.43792182 7
-1.6641607 0.9289248 -0.44000426 4
-1.9405529 1.0832053 -0.43199158 2
-27.249067 15.210271 2.7302408 100
-2.3492515 1.3113385 -0.42612749 1
-27.24807 15.209713 3.8315721 87
-26.554733 14.822698 -3.7340767 5
-27.159555 15.160305 4.926434 19
-4.6989551 2.6229293 -0.47081533 29
-25.708897 14.350556 5.723125 26
-4.7052083 2.6264198 -0.28240481 100
-27.298702 15.237976 7.2177796 36
-14.384279 8.0292206 -0.28754586 40
-26.179899 14.613467 8.0337429 25
-1.4310193 0.80535108 -0.43999237 7
-1.660908 0.93472815 -0.44000426 4
-1.9470255 1.0957497 -0.43428126 2
-27.178446 15.295524 2.7284977 85
-2.327445 1.3098427 -0.42299879 1
-27.179241 15.295972 3.8293786 94
-26.52359 14.926984 -3.7370017 5
-27.099585 15.251143 4.9251828 19
-4.6810894 2.6344299 -0.46994376 31
-25.665491 14.444061 5.7246513 36
-4.6925302 2.6408689 -0.28219548 100
-27.23176 15.325527 7.2141805 36
-14.363135 8.0833054 -0.28768545 45
-26.121996 14.700974 8.0316725 20
-1.4399611 0.81701475 -0.44361585 7
-14.465275 8.2074051 0.29030332 8
-1.6542453 0.93859679 -0.43910447 3
-21.870378 12.408961 1.3178194 10
-1.9312359 1.0957576 -0.43160996 1
-27.117956 15.386368 2.7278004 100
-2.3228586 1.3179591 -0.42299879 1
-27.111872 15.382915 3.8274286 87
-26.450605 15.007722 -3.7340767 5
-27.046183 15.345645 4.9251828 19
-4.1433339 2.3508728 -0.41677877 26
-25.594425 14.521936 5.7200723 26
-4.6537523 2.6404772 -0.28041604 97
-27.142504 15.400295 7.2047324 29
-14.345267 8.1393137 -0.2878949 40
-26.057079 14.78444 8.0275316 25
-1.4354235 0.82107699 -0.44309822 7
-14.438273 8.2588406 0.29033825 12
-1.6475757 0.94243026 -0.43820465 3
-21.821728 12.482253 1.3175054 24
-1.9461449 1.1132149 -0.43580773 2
-27.057165 15.476976 2.7271032 85
-2.3353906 1.3358674 -0.42612749 1
-27.054564 15.475488 3.826941 94
-26.394611 15.097989 -3.7335892 5
-26.978735 15.432114 4.9226799 24
-25.536762 14.60729 5.7185454 26
-4.6653109 2.6686058 -0.28167212 100
-27.086889 15.493979 7.2042823 36
-14.306354 8.1833811 -0.28768545 40
-26.006989 14.876265 8.0280495 30
-1.4293454 0.82390296 -0.44206291 7
-21.815447 12.574855 0.4395214 8
-1.6511948 0.95178139 -0.44000426 3
-21.754259 12.539586 1.3159353 100
-1.916929 1.1049558 -0.43008348 2
-26.98498 15.554676 2.7250113 100
-2.3412163 1.3495235 -0.42800468 1
-26.984179 15.554214 3.82426 100
-26.282486 15.149745 -3.7248147 5
-26.910297 15.511628 4.9195509 19
-4.6588922 2.6854777 -0.4704667 31
-25.491585 14.693853 5.7193089 35
-4.656436 2.684062 -0.28167212 99
-26.966139 15.543817 7.1858363 29
-14.277406 8.2297792 -0.28765056 30
-25.930735 14.946989 8.0197668 30
-1.4214498 0.82597554 -0.44051 7
-21.707447 12.613755 0.43822992 17
-1.6444926 0.95558119 -0.43910447 3
-21.71899 12.620463 1.3164587 100
-1.9164553 1.1136131 -0.43084672 2
-26.920183 15.642771 2.7239656 100
-2.3330755 1.3557028 -0.42737895 1
-26.926287 15.646317 3.8237724 100
-26.229443 15.241396 -3.7248147 5
-26.838907 15.595544 4.9164224 19
-4.1154613 2.3914111 -0.41643015 18
-25.406187 14.763019 5.7116766 26
-4.6591268 2.7073238 -0.28240481 100
-26.744909 15.540922 7.1412964 14
-14.255507 8.2835855 -0.28779018 20
-25.8617 15.027707 8.0145903 30
-1.4134126 0.82824975 -0.4389571 7
-21.669695 12.698288 0.43840444 25
-1.6409792 0.96160215 -0.43910447 3
-21.681204 12.705031 1.316982 100
-1.9242178 1.127578 -0.43351805 2
-26.848917 15.733274 2.7225711 100
-2.3042305 1.3502628 -0.42299879 1
-26.843069 15.729848 3.8201165 87
-2.9903655 1.7523329 -0.42556775 1
-26.798611 15.703795 4.9195509 4
-4.6292419 2.712703 -0.46942082 22
-25.289236 14.819312 5.6975565 17
-4.6216016 2.7082257 -0.28073007 100
-26.553263 15.560023 7.1053038 14
-16.048687 9.4044161 -0.32468456 11
-25.793112 15.114581 8.0104494 30
-1.4105128 0.8331784 -0.4389571 7
-14.29745 8.4453869 0.28984958 80
-1.6342567 0.96534216 -0.43820465 4
-21.617807 12.769463 1.3158306 100
-1.9033663 1.124303 -0.42970186 2
-26.790403 15.824872 2.7222226 85
-2.2995033 1.3582978 -0.42299879 1
-26.767487 15.811337 3.8171916 100
-26.119707 15.428699 -3.7248147 5
-26.735126 15.792221 4.9179869 4
-4.6248913 2.7318854 -0.46994376 27
-25.26947 14.92647 5.7048073 26
-4.6086807 2.7223101 -0.28052074 100
-26.483685 15.643697 7.1012549 14
-16.038145 9.4736013 -0.32513833 5
-25.741859 15.205506 8.0109673 25
-1.4210228 0.84575552 -0.44309822 7
-1.6310467 0.97075623 -0.43820465 4
-21.568478 12.836993 1.3154119 100
-1.9046887 1.1336209 -0.43084672 2
-26.737778 15.913626 2.7222226 100
-2.3187509 1.3800598 -0.42737895 1
-26.708084 15.895952 3.8162167 81
-26.032578 15.493909 -3.719696 15
-24.513237 14.589637 4.5181403 4
-4.6158066 2.7472072 -0.46994376 24
-25.221519 15.011189 5.7051888 8
-4.5996275 2.7375779 -0.28052074 100
-26.771605 15.933758 7.192585 14
-9.5215025 5.6669488 -0.19340757 24
-25.292877 15.053658 7.886734 5
-1.4014957 0.84077245 -0.43792182 7
-14.239634 8.542511 0.28984958 51
-1.6209637 0.97243369 -0.43640503 3
-21.509836 12.903983 1.3145746 100
-1.9024036 1.1412725 -0.43122834 2
-26.656439 15.991487 2.7196078 85
-2.3003681 1.3800157 -0.424876 1
-26.65584 15.991127 3.816704 54
-25.980038 15.585707 -3.7199399 20
-24.445221 14.664953 4.5150113 8
-4.5925207 2.7551029 -0.46854928 33
-25.158865 15.093077 5.7028995 26
-4.5934691 2.755672 -0.28073007 100
-25.225203 15.132873 6.7912722 6
-9.4810858 5.6878061 -0.19298871 28
-25.150719 15.088188 7.8587813 5
-1.3886335 0.8396619 -0.434816 7
-9.5159321 5.7539768 0.19410567 19
-1.6142242 0.97606933 -0.43550524 4
-21.473207 12.984156 1.3150979 100
-1.8967282 1.1468903 -0.43084672 2
-25.139322 15.200937 2.5702229 100
-2.2853947 1.3819044 -0.42299879 1
-25.159365 15.213056 3.6100137 6
-25.939066 15.684516 -3.7218897 5
-24.383739 14.744061 4.5131345 8
-4.5879903 2.7742097 -0.46907219 36
-25.181629 15.226519 5.7200723 8
-4.5923676 2.7768564 -0.28125343 100
-25.122198 15.190583 6.7777753 6
-9.4594622 5.7198319 -0.19295381 33
-25.104509 15.179887 7.8608522 5
-1.3922926 0.84852546 -0.43688655 7
-9.477005 5.7757115 0.19372171 12
-1.6074792 0.97966975 -0.43460545 3
-21.436279 13.064229 1.3156213 100
-1.8943896 1.1545259 -0.43122834 2
-25.082706 15.286524 2.5698743 10
-2.2805569 1.3898735 -0.42299879 1
-25.099327 15.296654 3.6090388 6
-2.9596424 1.8037386 -0.42556775 1
-24.325378 14.824974 4.5118828 12
-4.5816813 2.7922816 -0.46942082 38
-25.128325 15.314325 5.7200723 8
-4.5707083 2.7855942 -0.28052074 100
-25.118942 15.308608 6.7912722 6
-9.4616375 5.7663455 -0.19340757 24
-25.011778 15.243298 7.8484287 4
-1.38603 0.85135806 -0.43585128 7
-21.397896 13.14349 0.43833464 100
-1.6007286 0.98323506 -0.43370563 4
-21.371826 13.127477 1.3144699 100
-1.8953667 1.1642141 -0.4323732 2
-25.029194 15.373985 2.5698743 100
-2.2756915 1.3978256 -0.42299879 1
-25.02548 15.371706 3.6061139 6
-2.9296474 1.799513 -0.42215541 1
-24.271797 14.908761 4.51157 12
-4.5786972 2.812429 -0.47011808 38
-24.572851 15.093681 5.6055865 8
-4.560957 2.801532 -0.28052074 100
-24.122185 14.816862 6.535728 6
-9.448267 5.803524 -0.19354719 8
-25.007799 15.360845 7.8639579 5
-1.4076884 0.87144381 -0.44361585 7
-21.358688 13.222313 0.43847427 25
-1.5972868 0.98881662 -0.43370563 4
-21.346251 13.214614 1.3157259 25
-1.84789 1.1439551 -0.42245111 2
-24.965212 15.454967 2.5688283 100
-2.2540023 1.3953631 -0.41987011 1
-24.951418 15.446428 3.603189 6
-2.9233482 1.8097284 -0.42215541 1
-24.199453 14.980918 4.5078154 16
-4.5688519 2.8283944 -0.47011808 38
-24.428205 15.122529 5.5845976 8
-4.5494518 2.8163843 -0.28041604 100
-24.92861 15.432309 6.7687774 6
-15.644109 9.6846447 -0.32115918 33
-24.924461 15.429742 7.8546405 4
-1.3883989 0.86588413 -0.43843946 7
-21.60487 13.47402 0.44444299 100
-1.6105342 1.0044203 -0.43820465 4
-21.600578 13.471344 1.3341482 100
-1.8657423 1.1635826 -0.42741215 2
-24.896917 15.527127 2.5670853 100
-2.2527151 1.4049207 -0.42049584 1
-24.916903 15.53959 3.6056263 6
-24.132881 15.050631 4.5046868 16
-4.5509949 2.838258 -0.46924651 42
-4.5451713 2.834626 -0.28073007 100
-15.608513 9.7343521 -0.32108939 55
-24.879715 15.516398 7.8567109 4
-1.3755542 0.86455721 -0.43533364 7
-21.598339 13.574892 0.4452807 29
-1.6004187 1.005888 -0.43640503 4
-21.570333 13.55729 1.3351949 100
-1.8766291 1.1794906 -0.43084672 2
-24.840879 15.612879 2.566911 12
-2.2444522 1.4106731 -0.41987011 2
-24.845699 15.615909 3.603189 6
-2.850457 1.7915566 -0.4133808 1
-24.066818 15.126369 4.5021839 20
-4.5326257 2.8488257 -0.46837497 45
-24.914787 15.659331 5.7200723 8
-4.5369396 2.8515372 -0.28083473 100
-24.846087 15.616152 6.7750759 6
-15.560895 9.7802639 -0.32081014 66
-24.799231 15.586702 7.8484287 4
-1.3839521 0.87658954 -0.4389571 7
-22.51543 14.261181 0.46521133 100
-1.58702 1.0052118 -0.43370563 4
-24.799566 15.707942 1.5384678 46
-1.8725005 1.1860341 -0.43084672 4
-24.787912 15.700561 2.5670853 10
-2.2495272 1.4248412 -0.42174733 1
-24.811163 15.715287 3.6061139 6
-24.022213 15.21557 4.5037484 28
-4.5226536 2.86463 -0.46837497 49
-24.777046 15.693679 5.7009912 8
-4.5218968 2.8641505 -0.28052074 100
-24.768377 15.688188 6.7687774 6
-15.538486 9.8420124 -0.32105446 44
-24.715296 15.654566 7.8391113 4
-1.3826662 0.88221318 -0.43947473 9
-22.473072 14.338993 0.46531606 19
-1.5705353 1.0020834 -0.4301064 4
-24.733871 15.7815 1.5376304 15
-1.8652471 1.190125 -0.43008348 2
-24.722275 15.7741 2.5656908 100
-2.251451 1.4365432 -0.42299879 1
-24.725443 15.776123 3.6012392 6
-23.971624 15.295148 4.5037484 57
-4.5131292 2.879612 -0.46837497 51
-24.724869 15.775756 5.7009912 8
-4.5073228 2.8759072 -0.28020671 100
-24.716217 15.770236 6.7687774 6
-15.504077 9.8924103 -0.32101956 33
-24.682791 15.748908 7.8453231 4
-1.3909529 0.89434779 -0.44309822 7
-22.438021 14.427085 0.4656302 100
-1.5768627 1.0138831 -0.43280584 4
-24.681992 15.869902 1.5378398 15
-1.8594301 1.1955669 -0.42970186 2
-24.672089 15.863534 2.5662136 11
-2.2331305 1.4358468 -0.42049584 1
-24.656866 15.853745 3.5992892 6
-23.921412 15.380868 4.504374 94
-4.5097537 2.8996582 -0.46907219 51
-24.605247 15.820557 5.6861081 17
-4.4972568 2.891623 -0.28020671 100
-15.469452 9.9464693 -0.32101956 22
-1.362036 0.88215256 -0.434816 7
-22.378307 14.493803 0.46538588 67
-1.5800345 1.023344 -0.43460545 4
-24.59235 15.927776 1.535537 15
-1.8439204 1.1942556 -0.42703053 1
-24.594263 15.929016 2.5635991 100
-2.2250407 1.4410965 -0.41987011 1
-2.8757889 1.862568 -0.42069298 1
-23.857012 15.451519 4.5018711 100
-4.4850626 2.9048495 -0.4675034 54
-24.560888 15.907399 5.6880159 26
-4.4876428 2.9065206 -0.28020671 100
-24.647556 15.963532 6.7795749 6
-15.424634 9.9901037 -0.32077524 11
-25.395485 16.447945 8.1072474 5
-1.3649528 0.89183974 -0.43688655 7
-24.509586 16.014196 0.51104134 23
-1.5824393 1.0339422 -0.43640503 4
-25.778868 16.843527 1.6138315 18
-1.8391116 1.201648 -0.42703053 2
-25.774391 16.840603 2.6936355 20
-2.2291598 1.4564997 -0.42174733 1
-25.932589 16.943966 3.8035421 40
-2.8416998 1.8567243 -0.41679317 1
-23.773296 15.533115 4.4978037 90
-4.4767017 2.9250097 -0.46785203 56
-23.675068 15.468935 5.4972072 8
-4.4776111 2.9256041 -0.28031138 100
-15.376037 10.046473 -0.32060072 22
-25.329254 16.549755 8.1072474 5
-1.3571466 0.89317507 -0.43533364 7
-24.997557 16.451571 0.52235055 61
-1.5822576 1.0413266 -0.43730485 4
-25.832983 17.001389 1.6207399 36
-1.8416765 1.2120572 -0.42855701 1
-25.881506 17.033321 2.7107179 63
-2.2078168 1.4530241 -0.41861862 1
-25.567833 16.826885 3.7582068 6
-2.8554256 1.8792331 -0.41971803 1
-23.736506 15.621639 4.5006194 100
-4.4686413 2.9409342 -0.46802634 56
-23.623642 15.547359 5.4972072 8
-4.4612117 2.9360445 -0.27989268 100
-24.897768 16.385897 6.8812528 7
-15.339296 10.095207 -0.32053089 27
-25.274233 16.633659 8.1072474 5
-1.3570836 0.9002791 -0.43636891 7
-24.933758 16.540871 0.52228069 85
-1.5556958 1.032037 -0.43100622 4
-25.820427 17.12908 1.62388 55
-1.8323137 1.2155433 -0.42741215 2
-25.813921 17.124763 2.7101951 63
-2.2024765 1.4611065 -0.41861862 1
-25.603584 16.985228 3.7725873 13
-25.659828 17.022539 -3.7808745 5
-23.67909 15.708532 4.5006194 100
-4.4594927 2.9583943 -0.46820065 72
-24.330507 16.140678 5.6754227 35
-4.4487562 2.9512718 -0.27978802 100
-25.85248 17.150343 7.1624417 22
-15.308858 10.155783 -0.32067052 33
-25.148705 16.683464 8.0865421 5
-1.3605157 0.90906757 -0.43843946 7
-24.908699 16.643459 0.52290899 61
-1.5717087 1.0501821 -0.43640503 3
-25.758501 17.211281 1.623566 74
-1.8331698 1.224885 -0.42855701 1
-25.750364 17.205843 2.7094977 63
-2.1943343 1.4662071 -0.41799289 1
-25.679163 17.158268 3.7920866 19
-25.586733 17.096508 -3.7784371 5
-23.603874 15.771605 4.4962392 100
-4.456284 2.9775939 -0.46889791 72
-24.253996 16.206003 5.6700802 52
-4.4406056 2.9671178 -0.27989268 100
-25.793846 17.234896 7.1619916 44
-15.268445 10.202049 -0.32053089 38
-25.157494 16.8097 8.1072474 5
-1.344514 0.90518004 -0.43429837 9
-25.626768 17.252954 0.53924447 25
-1.555101 1.0469556 -0.43280584 4
-25.691639 17.296627 1.6231474 74
-1.8288831 1.2312764 -0.42855701 2
-25.686844 17.2934 2.7091491 63
-2.1859255 1.4716516 -0.41736716 1
-25.67016 17.282167 3.7996423 39
-25.523605 17.1835 -3.7779496 5
-23.53393 15.843973 4.4934235 100
-4.4359469 2.986455 -0.46785203 76
-24.20705 16.297144 5.67237 35
-4.4368482 2.9870617 -0.28031138 100
-25.736761 17.327005 7.1628914 29
-15.212834 10.241882 -0.32011205 33
-25.066614 16.875835 8.0968952 5
-1.3447028 0.91180199 -0.43533364 7
-25.566103 17.335596 0.53917462 77
-1.5580723 1.0564814 -0.43460545 4
-25.622568 17.373882 1.6224146 55
-1.8182902 1.2329272 -0.42703053 2
-25.626057 17.376249 2.7088006 63
-2.1875732 1.4833267 -0.41861862 1
-25.611065 17.366083 3.7993987 46
-25.453339 17.259132 -3.7759998 5
-23.49107 15.928578 4.4953008 90
-4.4260192 3.0011487 -0.46785203 90
-24.136625 16.36631 5.6685538 17
-4.4368367 3.0084839 -0.2809394 100
-25.674322 17.408976 7.1615419 44
-15.173822 10.288907 -0.32000732 11
-24.978535 16.937183 8.0865421 5
-1.3475709 0.92131984 -0.43740419 7
-25.489447 17.426863 0.53896523 64
-1.5443521 1.0558571 -0.43190601 4
-24.675234 16.870195 1.5665199 16
-1.8135427 1.2398999 -0.42703053 1
-25.552568 17.470018 2.7081032 63
-2.1786001 1.4894856 -0.41799289 1
-25.304945 17.30072 3.7638128 26
-25.393435 17.361221 -3.7769747 5
-23.428104 16.017546 4.494988 57
-4.4177523 3.0203702 -0.46820065 90
-24.06064 16.450003 5.6655006 17
-4.4104137 3.0153527 -0.27999738 100
-25.600853 17.503029 7.1597424 29
-24.951591 17.059137 8.0989656 5
-1.3445083 0.92578351 -0.43740419 7
-24.668951 16.986216 0.52280426 24
-1.534422 1.0565517 -0.4301064 4
-24.62409 16.955326 1.5668339 64
-1.8094211 1.2459069 -0.42703053 1
-25.231937 17.373869 2.6802135 40
-2.1687679 1.4933411 -0.4170543 2
-25.345533 17.452087 3.7784371 86
-25.303024 17.422817 -3.7721 10
-23.369978 16.091787 4.4940495 41
-4.4126353 3.0383933 -0.4687236 94
-24.02051 16.539721 5.6689353 8
-4.4053254 3.0333598 -0.28031138 100
-25.544273 17.588934 7.160192 36
-7.3967323 5.093143 -0.15675752 93
-24.869425 17.124256 8.090683 5
-1.3573058 0.94124568 -0.44258058 7
-13.569897 9.410264 0.28824395 24
-1.5373154 1.0660763 -0.43190601 3
-24.552958 17.026646 1.5658919 96
-1.8052796 1.2519003 -0.42703053 1
-25.418133 17.626616 2.7061858 41
-2.1719201 1.5061532 -0.41861862 2
-25.099928 17.405951 3.7504072 84
-25.173334 17.456856 -3.7613754 5
-23.305124 16.161316 4.4918594 28
-4.4025354 3.0530093 -0.4687236 94
-24.020382 16.657324 5.68191 8
-4.3985243 3.0502279 -0.28052074 100
-25.474598 17.665771 7.157043 36
-7.3699427 5.110806 -0.15654808 100
-24.806152 17.202229 8.0886126 5
-1.3367549 0.93357408 -0.43688655 7
-13.538616 9.4552126 0.28824395 8
-1.5529438 1.0845579 -0.43730485 4
-24.964672 17.435038 1.5958279 12
-1.8011183 1.25788 -0.42703053 2
-25.039383 17.487213 2.6720207 100
-2.1766307 1.5201335 -0.42049584 1
-25.31386 17.678905 3.7911115 66
-25.186916 17.590248 -3.7721 5
-23.249784 16.237379 4.4915462 20
-4.382586 3.0607471 -0.46767771 96
-23.965014 16.736885 5.68191 8
-4.3883853 3.0647972 -0.28052074 100
-25.409485 17.745687 7.1552429 22
-7.7890491 5.4397812 -0.16583277 100
-24.739468 17.277758 8.0855074 5
-1.3252625 0.93313891 -0.43429837 7
-25.235302 17.768587 0.53872091 100
-1.5519547 1.0927566 -0.43820465 3
-25.219255 17.757288 1.6164484 73
-1.7834331 1.2557442 -0.42397758 1
-25.161024 17.716288 2.692241 61
-2.1610868 1.5216564 -0.41861862 1
-24.968239 17.580544 3.7494323 100
-25.023426 17.619402 -3.7577193 31
-23.184036 16.324257 4.4909205 12
-4.3675432 3.0752583 -0.46732908 96
-25.345297 17.846035 6.0253663 9
-4.376585 3.0816247 -0.28052074 100
-23.89118 16.82217 6.7458324 13
-8.3109398 5.8518682 -0.17742117 28
-24.660307 17.363724 8.0813656 5
-1.3190091 0.93529361 -0.43326309 9
-24.41283 17.310848 0.52238542 12
-1.5228881 1.0798618 -0.43100622 4
-24.925621 17.674461 1.6013756 100
-1.7872665 1.2673295 -0.42588568 2
-24.897354 17.654417 2.6702776 100
-2.1495833 1.5242441 -0.41736716 1
-25.215853 17.88026 3.7954988 46
-25.070114 17.77692 -3.7735624 5
-23.134609 16.404476 4.4918594 8
-4.3605719 3.0920296 -0.46767771 96
-23.812603 16.885235 5.6742778 8
-4.3549376 3.0880342 -0.27978802 100
-25.28026 17.925932 7.1547933 14
-15.047999 10.670358 -0.3219969 38
-24.602592 17.445406 8.0813656 5
-1.3202875 0.9434914 -0.434816 7
-24.420805 17.451365 0.52392125 12
-1.5125779 1.0809041 -0.42920661 4
-25.171047 17.987495 1.6213679 55
-1.7746229 1.2681643 -0.42397758 2
-24.300783 17.365597 2.6131034 18
-2.1600542 1.5435975 -0.42049584 1
-25.096851 17.934475 3.7874556 39
-24.89012 17.786741 -3.7562568 10
-23.072721 16.48801 4.4915462 4
-4.3540726 3.1114664 -0.46820065 90
-25.223286 18.024826 6.0261297 9
-4.3419647 3.102814 -0.27968335 100
-25.206461 18.012802 7.1525435 44
-15.020179 10.733578 -0.32224125 44
-1.3312639 0.95802009 -0.43947473 7
-25.059113 18.03334 0.53889543 100
-1.5121486 1.0881907 -0.4301064 3
-25.065868 18.038202 1.6184371 18
-1.786343 1.2855097 -0.42779377 2
-24.236595 17.441429 2.6124063 18
-2.1324763 1.5345984 -0.41611567 1
-25.095245 18.059341 3.7962301 79
-24.929285 17.939913 -3.7711251 5
-23.017918 16.564432 4.4915462 4
-4.3485823 3.1293793 -0.4687236 99
-25.141066 18.092316 6.0207872 9
-4.3381362 3.1218617 -0.28010204 100
-25.146589 18.096291 7.1525435 22
-15.002357 10.796176 -0.32262519 82
-1.3089769 0.94928318 -0.43326309 7
-24.99123 18.123892 0.5388605 100
-1.5144603 1.0983019 -0.43190601 4
-25.038391 18.158092 1.6209493 55
-1.7704942 1.2839803 -0.42512244 2
-24.214441 17.560556 2.6169384 19
-2.1492252 1.5586398 -0.42049584 1
-25.024065 18.147703 3.7954988 72
-24.879435 18.042816 -3.7735624 5
-22.968246 16.656803 4.4937363 8
-4.3241801 3.1359389 -0.46732908 99
-25.074585 18.184341 6.0207872 29
-4.3298984 3.1400859 -0.28031138 100
-25.076939 18.186049 7.1516438 44
-14.977255 10.861656 -0.32293934 93
-25.056664 18.171345 8.2935972 11
-1.2995813 0.94906139 -0.43119252 7
-24.929377 18.205486 0.53882557 29
-1.5108099 1.103318 -0.43190601 4
-25.018362 18.27047 1.623566 74
-1.7741541 1.2956336 -0.42703053 1
-24.978279 18.241199 2.7060115 62
-2.1280921 1.5541083 -0.41736716 2
-24.966953 18.232927 3.7959864 72
-24.922066 18.200148 -3.7891617 5
-22.933622 16.748022 4.4978037 53
-4.3153663 3.1514363 -0.4675034 100
