# .PCD v0.7 - Point Cloud Data file format
VERSION 0.7
FIELDS x y z intensity
SIZE 4 4 4 4
TYPE F F F F
COUNT 1 1 1 1
WIDTH 1283
HEIGHT 1
VIEWPOINT 0 0 0 1 0 0 0
POINTS 1283
DATA ascii
-1.2459176 -4.2968726 -0.23446508 36
-2.5973682 -8.9577036 2.1532314 46
-1.3081386 -4.5114584 -0.081991404 60
-3.9359934 -13.574303 3.7870402 30
-0.52323699 -1.7812496 -0.4974502 5
-1.3813649 -4.7025647 0.085551694 38
-0.61898357 -2.1071987 -0.50703967 2
-1.5012696 -5.110755 0.27915999 19
-0.75860429 -2.5825078 -0.52319825 1
-1.6166543 -5.5035577 0.50184274 27
-1.6146497 -5.4967332 0.70342988 33
-0.60871065 -2.0722265 -0.26518768 1
-1.7938112 -6.1066508 1.0080637 32
-1.282542 -4.3661427 -0.39812744 5
-1.7949762 -6.1106167 1.2379688 46
-1.2637234 -4.3020792 -0.23498844 36
-4.7332745 -16.113432 3.8772564 97
-1.3210605 -4.4972711 -0.081816882 56
-3.9936976 -13.595698 3.7968755 58
-0.52669686 -1.7701542 -0.49486202 5
-1.3943498 -4.6862144 0.085342266 35
-0.63078135 -2.1199677 -0.51063889 2
-1.5225179 -5.1169691 0.27978802 28
-0.76761431 -2.5798442 -0.52319825 1
-1.6341509 -5.4921522 0.50131983 28
-0.62813622 -2.1110778 -0.34884885 1
-1.6366576 -5.500577 0.70464855 34
-1.8162432 -6.1041389 1.0086894 32
-1.2932292 -4.3463621 -0.39673293 9
-1.8134959 -6.0949054 1.2360606 57
-1.2787328 -4.2976418 -0.23498844 36
-4.7889361 -16.094944 3.8768065 100
-1.3361807 -4.490716 -0.081781976 58
-4.0455384 -13.596488 3.8010166 97
-0.53844661 -1.7868018 -0.50003839 6
-1.4083914 -4.6736603 0.085202649 40
-0.62918121 -2.0878992 -0.50344044 2
-1.5415227 -5.115448 0.27999738 26
-0.78001374 -2.5884275 -0.52548796 1
-1.6527373 -5.4845066 0.50114554 24
-0.62524223 -2.0748277 -0.34321722 3
-1.6512662 -5.4796252 0.70269865 34
-1.8358296 -6.0920877 1.0077509 32
-1.308393 -4.3418217 -0.39673293 7
-1.8319277 -6.0791392 1.2341526 53
-1.2914214 -4.2855024 -0.23456976 40
-4.845089 -16.078129 3.8768065 100
-1.3541559 -4.4936829 -0.081921592 58
-4.090745 -13.574884 3.7989459 100
-0.54806352 -1.7959979 -0.5031442 5
-1.422946 -4.6629777 0.085097931 42
-0.6376031 -2.0894179 -0.50434029 2
-1.554123 -5.0928435 0.27905533 26
-1.6741978 -5.4863267 0.50184274 26
-0.63363403 -2.0764112 -0.34384295 4
-1.6669072 -5.4624357 0.70123619 34
-1.8542011 -6.0761952 1.0061865 31
-1.3328452 -4.3677182 -0.39952192 7
-1.8531367 -6.0727077 1.2341526 59
-1.3022922 -4.2675962 -0.23383705 42
-4.8926511 -16.033161 3.8700578 100
-1.3710009 -4.492754 -0.081991404 63
-4.1375413 -13.558675 3.7984283 100
-0.55546999 -1.7977653 -0.50417948 5
-1.4427561 -4.6694455 0.08530736 41
-0.60117108 -1.9456758 -0.4701477 1
-1.5689429 -5.0778461 0.27853197 26
-1.6909857 -5.4728346 0.50114554 24
-0.64554334 -2.0892856 -0.3463459 1
-1.6853786 -5.4546871 0.70099247 33
-1.3982313 -4.525342 -0.58156049 1
-1.8765659 -6.0734606 1.0068122 32
-1.3416134 -4.3420997 -0.3976045 11
-1.8760618 -6.0718293 1.2352974 64
-1.3195394 -4.2706575 -0.23425575 45
-4.943985 -16.001089 3.8664587 100
-1.3801816 -4.4669247 -0.081607454 72
-4.1831336 -13.538612 3.7968755 100
-0.54213291 -1.7331278 -0.48657981 4
-1.4590467 -4.664381 0.08530736 46
-0.54221809 -1.7334001 -0.41930875 2
-1.5866584 -5.0723386 0.27853197 24
-0.53453428 -1.708836 -0.3480356 2
-1.7041311 -5.4478836 0.4994024 19
-1.7061865 -5.4544544 0.70172369 31
-1.3837949 -4.423811 -0.56912982 5
-1.8936267 -6.0536761 1.0046221 34
-1.3520035 -4.3221779 -0.39621001 11
-1.8960727 -6.0614958 1.2345341 66
-1.3356313 -4.2698379 -0.23446508 64
-5.000391 -15.985594 3.8669086 100
-1.3945717 -4.4582624 -0.081537642 81
-4.2280598 -13.516553 3.7948048 100
-0.54030019 -1.7073767 -0.4798505 3
-1.4666632 -4.6347322 0.084853597 42
-0.54267174 -1.714871 -0.41525966 9
-1.2949482 -4.092104 0.22493994 1
-0.54197502 -1.7126693 -0.34918046 3
-1.2845776 -4.0593324 0.37250364 5
-1.7254627 -5.4525518 0.70221114 34
-1.2792739 -4.0425725 -0.52062583 6
-1.9124991 -6.0435967 1.0039964 33
-1.3579133 -4.2910767 -0.39376965 11
-1.9132013 -6.0458164 1.2326261 60
-1.3467703 -4.2558641 -0.23394172 52
-5.0486698 -15.954061 3.8633094 100
-1.4105548 -4.4574265 -0.081607454 100
-4.2687793 -13.489565 3.7911813 91
-0.55156022 -1.7220384 -0.48450926 2
-1.2931324 -4.0373178 0.073998205 27
-0.54152137 -1.6906959 -0.40986082 21
-1.302523 -4.0666361 0.22378854 35
-0.54795003 -1.710767 -0.34918046 3
-1.2963085 -4.0472336 0.37180641 42
-1.1165255 -3.485929 -0.57974613 1
-1.7390355 -5.4294815 0.70001751 33
-1.1419989 -3.5654602 -0.45969117 1
-1.9323784 -6.0331216 1.0033706 33
-1.2878002 -4.0206695 -0.36936605 34
-1.9318981 -6.0316224 1.2310996 53
-1.3037415 -4.0704403 -0.22399789 29
-5.1007628 -15.925205 3.86061 68
-1.300452 -4.0601702 -0.074417062 44
-4.3134837 -13.467223 3.7891109 84
-0.55756789 -1.7201025 -0.48450926 9
-1.3059841 -4.0289745 0.073928393 52
-0.5438143 -1.6776726 -0.40716141 25
-1.3105516 -4.0430651 0.22274183 46
-0.55028611 -1.6976384 -0.34689075 4
-1.3116568 -4.0464745 0.37215501 46
-1.0689937 -3.2978566 -0.54908496 1
-1.1470925 -3.5387919 -0.45676631 41
-1.9546444 -6.030098 1.0039964 33
-1.3036702 -4.0218358 -0.36988896 71
-1.9547569 -6.0304446 1.2322445 44
-1.3019296 -4.0164661 -0.22127642 74
-5.1593256 -15.916572 3.8628595 81
-1.3152333 -4.0575085 -0.074451968 82
-4.3610625 -13.453922 3.7896285 73
-0.55935401 -1.7052964 -0.48088577 7
-1.3219097 -4.0300918 0.074033111 33
-0.54966718 -1.6757642 -0.40716141 24
-1.3240341 -4.0365682 0.22263716 30
-0.54947788 -1.675187 -0.34269294 5
-1.3357092 -4.0721617 0.374944 10
-1.0743423 -3.2753351 -0.54595625 1
-1.3716512 -4.1817379 0.54036868 18
-1.9719875 -6.0119762 1.0021192 33
-1.975795 -6.0235844 1.2322445 55
-1.331504 -4.0593414 -0.22389323 27
-5.2063503 -15.872542 3.8565609 68
-1.4409502 -4.3930087 -0.080699928 51
-4.4079986 -13.438617 3.7896285 46
-0.55982667 -1.686832 -0.47622705 2
-1.5299715 -4.6100068 0.084783792 85
-0.56042391 -1.6886317 -0.41076061 12
-1.6589622 -4.998673 0.27601984 19
-0.54728281 -1.6490357 -0.33773193 4
-1.4741756 -4.4418864 0.40945768 1
-1.0633689 -3.2040715 -0.534693 1
-1.4012464 -4.2221413 0.5462184 21
-1.3837388 -4.1693883 -0.53939372 10
-1.1804701 -3.5569129 -0.32787991 37
-1.9961909 -6.0147877 1.2318629 59
-1.3972526 -4.2101073 -0.23247632 22
-5.2623377 -15.856121 3.8570108 73
-1.4506069 -4.3708711 -0.080385782 42
-4.4512305 -13.412148 3.7865226 43
-0.55681312 -1.6593254 -0.4689801 2
-1.4720911 -4.3868904 0.08076974 41
-0.5697403 -1.6978489 -0.41346005 3
-1.4734746 -4.3910131 0.24273416 31
-0.55462193 -1.6527956 -0.33887678 5
-1.4686143 -4.3765292 0.4038797 35
-1.084043 -3.2304916 -0.5396989 1
-1.4777606 -4.4037852 0.5703485 41
-1.4082931 -4.1967697 -0.54353726 8
-1.4786975 -4.4065776 0.7361806 14
-2.0130029 -5.9988289 1.2299548 60
-1.2104222 -3.6071064 -0.19939999 1
-5.3142695 -15.836736 3.8565609 76
-1.456187 -4.3394952 -0.079897113 59
-4.4901509 -13.38083 3.7818639 35
-0.57005352 -1.6793236 -0.47519177 8
-1.4790391 -4.3571086 0.080315977 51
-0.57065219 -1.6810873 -0.40986082 2
-1.4881511 -4.3839517 0.2426295 45
-0.55660146 -1.639695 -0.33658707 5
-1.4902866 -4.3902426 0.40562284 38
-1.094043 -3.2229469 -0.53907317 1
-1.4937617 -4.4004798 0.57059228 52
-1.4420767 -4.2482209 -0.55084944 8
-1.5016899 -4.4238358 0.73993504 22
-1.3782109 -4.0600786 -0.37511832 17
-2.0282507 -5.9750338 1.2265202 31
-1.213376 -3.5744905 -0.19782992 24
-5.3676386 -15.812553 3.8552113 86
-1.4822531 -4.3665767 -0.0804905 40
-4.5374522 -13.366903 3.7823815 31
-0.5743652 -1.6737695 -0.4741565 18
-1.5356684 -4.4751229 0.082584791 25
-0.57748878 -1.6828721 -0.41076061 2
-1.5519489 -4.5225663 0.25058457 21
-0.55311465 -1.6118429 -0.33124441 4
-1.5927862 -4.6415715 0.42932919 46
-1.0970308 -3.1968799 -0.53531873 1
-1.5863084 -4.622694 0.60008466 47
-1.4213632 -4.142024 -0.53768754 5
-1.5990617 -4.6598587 0.78029513 40
-1.4168878 -4.1289821 -0.38191646 15
-1.5981699 -4.6572604 0.95709795 13
-1.4423919 -4.2033043 -0.232895 3
-5.4162502 -15.783607 3.8525116 63
-1.2539778 -3.6542425 -0.067436099 1
-4.5811267 -13.349957 3.7818639 30
-0.58395797 -1.680676 -0.47674468 20
-1.5902501 -4.5768623 0.084574364 27
-0.58266711 -1.6769607 -0.40986082 6
-1.5968344 -4.5958123 0.25498077 19
-0.55672216 -1.6022892 -0.32971793 4
-1.6145203 -4.6467133 0.43037507 52
-1.1313411 -3.2560866 -0.54595625 1
-1.6151223 -4.6484461 0.6042282 58
-1.441166 -4.1477866 -0.53915 5
-1.6247225 -4.6760759 0.78404951 54
-1.5059701 -4.3342977 -0.40143934 24
-1.6392375 -4.7178512 0.97083616 26
-1.47032 -4.2316937 -0.2347791 14
-1.2568424 -3.6172888 -0.06684272 15
-4.6342549 -13.337742 3.7834167 20
-0.59080827 -1.6823757 -0.47777995 21
-1.5954802 -4.5432625 0.084050789 3
-0.59274477 -1.6878899 -0.41301015 13
-1.6755955 -4.7713976 0.26502928 24
-0.55552745 -1.5819106 -0.32590178 6
-1.6847132 -4.7973609 0.4448429 20
-1.1421324 -3.252317 -0.54595625 1
-1.7180072 -4.892168 0.63664544 48
-1.4983233 -4.2666001 -0.55523676 5
-1.7207255 -4.899909 0.82253242 57
-1.5157138 -4.3161211 -0.40021917 16
-1.7342345 -4.9383769 1.0173936 64
-1.5697128 -4.4698873 -0.24828178 16
-1.730453 -4.927609 1.2057377 9
-1.5504252 -4.4149642 -0.081677265 6
-4.672698 -13.305897 3.778758 24
-0.59538436 -1.6766622 -0.47674468 20
-1.2841119 -3.6161878 0.066982336 4
-0.59732878 -1.6821377 -0.41211033 20
-1.6962507 -4.7768121 0.26565731 21
-0.55973208 -1.5762618 -0.32513854 6
-1.7227837 -4.851532 0.45042089 11
-1.1442239 -3.2222493 -0.54157615 1
-1.7390592 -4.8973656 0.6381079 47
-1.5523993 -4.3717122 -0.56961733 3
-1.741124 -4.9031801 0.82409674 40
-1.5654397 -4.4084353 -0.40928337 1
-1.7665722 -4.9748449 1.0261707 20
-1.5913211 -4.4813199 -0.24922383 15
-1.7685105 -4.9803033 1.2201345 17
-1.6421107 -4.6243486 -0.085656412 16
-0.60224605 -1.6783152 -0.47777995 21
-1.2947457 -3.6081452 0.066912524 2
-0.60356182 -1.6819819 -0.41256022 17
-1.7114073 -4.7692814 0.26555264 3
-0.56097752 -1.5633096 -0.32284883 6
-1.1642436 -3.2444675 -0.54595625 1
-1.8102684 -5.0447836 0.65809447 26
-1.5749335 -4.3889618 -0.57254219 3
-1.8447757 -5.1409469 0.86508256 51
-1.5787041 -4.3994694 -0.40893474 1
-1.8447274 -5.1408124 1.0616612 46
-1.8534679 -5.1651702 1.2669244 55
-1.6837772 -4.6922827 -0.0870177 19
-1.8902566 -5.2676916 1.4995975 13
-0.611395 -1.6852829 -0.48036814 17
-1.7485658 -4.8198438 0.089495942 16
-0.60942936 -1.6798649 -0.41256022 9
-1.3180002 -3.6330087 0.20254014 3
-0.5691092 -1.5687242 -0.3243753 5
-1.3609911 -3.7515111 0.34914592 1
-1.1580462 -3.1921029 -0.53782171 1
-1.8556235 -5.114943 0.66808772 42
-1.5868593 -4.3741069 -0.57132345 1
-1.8680991 -5.1493316 0.86758554 37
-2.5215366 -6.9505033 -0.6468699 5
-1.9416667 -5.3521175 1.1066922 71
-1.5618473 -4.3051624 -0.24001269 3
-1.9578832 -5.3968177 1.3254116 61
-1.7090117 -4.7108145 -0.087471463 2
-1.9402567 -5.3482308 1.5244442 25
-0.6289475 -1.7158954 -0.48968562 7
-1.7858735 -4.8722224 0.09057799 16
-0.61969125 -1.6906426 -0.41570956 3
-1.3286657 -3.6248677 0.20233081 1
-0.55944371 -1.526275 -0.31597969 5
-1.1672657 -3.1845357 -0.53719598 1
-1.9169812 -5.2299109 0.68393075 24
-1.6040883 -4.376276 -0.57229841 1
-1.9531474 -5.3285794 0.89887244 20
-2.5486856 -6.9533277 -0.64791578 5
-1.9803497 -5.4027925 1.1185223 67
-1.9918648 -5.4342084 1.3362093 70
-1.5759732 -4.299572 -0.079932019 2
-0.64524019 -1.738713 -0.49693257 3
-1.8088961 -4.8743882 0.090752512 1
-0.71393508 -1.9238235 -0.47374693 1
-1.8866036 -5.0837846 0.28418425 12
-0.55873555 -1.5056111 -0.3121635 5
-5.7242579 -15.425018 -2.6058853 4
-1.9524635 -5.2612557 0.68904924 15
-1.6313119 -4.3958564 -0.57571077 1
-2.051496 -5.5281162 0.93391377 25
-2.5738046 -6.9355688 -0.64721853 5
-2.0812557 -5.6083088 1.1627901 20
-2.1018031 -5.6636777 1.3946966 70
-3.7249343 -10.03749 -0.18688037 4
-2.1084569 -5.6816072 1.6238307 60
-0.65032434 -1.7347549 -0.49641493 5
-1.5688412 -4.1849194 0.078012258 2
-0.76956278 -2.0528262 -0.50613987 2
-1.8922342 -5.0475779 0.28250951 1
-0.56096864 -1.4963967 -0.31063706 5
-1.2002857 -3.2017891 -0.54157615 1
-1.6416993 -4.3792701 -0.57424837 1
-2.063576 -5.5046358 0.93109792 22
-2.5897958 -6.9083395 -0.64547545 5
-2.1873643 -5.8348436 1.2112556 37
-2.206764 -5.8865933 1.4513842 64
-3.750478 -10.004485 -0.18649642 33
-2.2140865 -5.906126 1.6900884 61
-0.65949398 -1.7416221 -0.49900311 6
-1.5791695 -4.1703434 0.077837735 1
-0.77498579 -2.046618 -0.50524008 2
-0.5659278 -1.4945282 -0.31063706 6
-1.2150937 -3.2088754 -0.54345334 1
-1.3911903 -3.6739194 0.48235887 2
-1.6773018 -4.4294953 -0.58156049 1
-2.1007061 -5.5476413 0.93954539 11
-2.6197462 -6.9183464 -0.64721853 5
-2.208787 -5.833066 1.2124003 70
-3.317874 -8.7619944 -0.49101594 2
-2.2386944 -5.9120474 1.4594824 44
-3.7822173 -9.9882536 -0.18642661 33
-2.2692339 -5.9926977 1.7170055 45
-0.666646 -1.7430344 -0.50003839 5
-3.6653061 -9.5834284 0.17909659 24
-0.78037608 -2.0403965 -0.50434029 2
-1.5867685 -4.1488166 0.23279034 1
-0.57088071 -1.4926432 -0.31063706 6
-1.5679532 -4.0996213 0.3840082 1
-5.8703694 -15.348859 -2.6027567 4
-3.8179493 -9.9825344 -1.3122891 2
-2.3060229 -6.0294023 -0.56476921 2
-2.2400405 -5.8568826 1.2188878 19
-2.3815045 -6.226759 1.5391151 63
-3.8153186 -9.9756556 -0.18642661 37
-2.4002018 -6.2756453 1.8003453 55
-0.67921638 -1.754757 -0.50417948 6
-3.7051907 -9.5723677 0.17916641 26
-0.78926384 -2.0390649 -0.50479019 2
-5.9637628 -15.407393 0.86584604 4
-0.57261586 -1.4793543 -0.30834734 6
-1.5843976 -4.0932941 0.3840082 2
-5.9233799 -15.303063 -2.5990021 4
-3.8350608 -9.9078875 -1.3044895 2
-1.4261177 -3.6843779 0.62573785 1
-2.2942479 -5.9271941 -0.55605364 27
-2.2706203 -5.8661523 1.2227041 9
-3.1700513 -8.1898346 -0.46024239 73
-2.4325085 -6.2843904 1.5557615 19
-3.853889 -9.9565306 -0.1863568 37
-0.67448187 -1.7255058 -0.49641493 4
-3.7376413 -9.5618906 0.1792013 24
-0.79460239 -2.0328064 -0.50389034 2
-6.0140958 -15.385673 0.86574137 24
-0.57037091 -1.459162 -0.30453116 7
-1.5841808 -4.0527601 0.3806963 3
-1.2405576 -3.1736796 -0.5396989 1
-1.4562423 -3.7254591 0.49113345 2
-1.7099104 -4.3744102 -0.57668573 1
-2.2950313 -5.8713064 -0.55152154 17
-6.046073 -15.467478 3.8340657 73
-3.8825169 -9.9325209 -0.18614736 37
-5.117341 -13.091534 3.7663348 11
-0.68009174 -1.7212255 -0.49589729 3
-3.7682533 -9.5369682 0.17899188 24
-0.80849266 -2.0461919 -0.50793946 1
-6.0814557 -15.391389 0.86731148 64
-0.57715809 -1.4607135 -0.30529439 7
-3.3481402 -8.4737158 0.79712641 3
-6.0358772 -15.276035 -2.601505 4
-1.5793079 -3.9970269 0.52769428 3
-2.3240993 -5.881999 -0.77655149 2
-2.3355713 -5.9110332 -0.55605364 35
-1.473196 -3.7284713 0.77926391 1
-3.3159566 -8.3922634 -0.47290769 115
-3.9218345 -9.925663 -0.18628699 33
-5.1674194 -13.078079 3.7678876 3
-0.68651164 -1.7207551 -0.49641493 3
-3.7946713 -9.5114183 0.17874755 14
-6.1184001 -15.335891 0.86532271 8
-0.5776338 -1.4478506 -0.30300468 7
-3.3909876 -8.4995775 0.80061263 1
-2.3460295 -5.8803697 -1.0027449 1
-1.6094725 -4.0341744 0.53330022 1
-2.3524191 -5.8963852 -0.77947634 2
-1.5884194 -3.9814048 0.67892557 5
-2.3507304 -5.8921523 -0.55500776 27
-2.3593504 -5.9137583 -0.11113692 12
-2.370935 -5.9427953 1.7144173 1
-0.41160896 -1.0213331 -0.29505372 1
-2.3777363 -5.8999224 0.11103221 36
-0.57327747 -1.4224842 -0.35407296 1
-2.3823051 -5.9112592 0.33400807 34
-0.58121651 -1.4421836 -0.30224144 7
-2.3817101 -5.9097819 0.55744815 33
-2.3606346 -5.8574872 -1.000242 5
-1.5946057 -3.9567254 0.52379441 2
-2.3766971 -5.8973436 -0.78069502 2
-1.5823709 -3.926367 0.67047811 2
-2.3750072 -5.8931503 -0.55587935 35
-1.5895392 -3.9441535 0.82658458 1
-2.365134 -5.8686523 -0.33160061 35
-1.5115002 -3.7505143 0.9335469 1
-2.3867061 -5.9221792 -0.11145107 28
-0.42664251 -1.048593 -0.30333593 1
-2.3987954 -5.8957095 0.11110202 37
-0.57799143 -1.4205754 -0.35407296 3
-2.3981309 -5.8940768 0.33348471 36
-0.58155644 -1.4293373 -0.29995173 7
-2.403547 -5.9073882 0.55797106 37
-2.3845124 -5.8606052 -1.0021192 5
-2.3962402 -5.88943 0.78069502 34
-2.4007292 -5.9004622 -0.78215742 2
-1.5373144 -3.7783797 0.64607435 1
-2.3930349 -5.8815513 -0.55553073 40
-1.6040895 -3.9424977 0.82734782 16
-2.3868403 -5.8663268 -0.33191463 38
-1.5415553 -3.7888026 0.94434452 1
-2.3942738 -5.8845963 -0.11089259 28
-0.41872913 -1.0184346 -0.29505372 1
-2.4226694 -5.8924265 0.11120673 34
-0.58467627 -1.422052 -0.35497275 4
-2.4197178 -5.8852477 0.33348471 36
-0.57633954 -1.4017754 -0.2946091 8
-2.4191215 -5.8837972 0.55657655 34
-2.4052255 -5.8499994 -1.0018063 5
-2.4223392 -5.8916235 0.78215742 39
-2.4087517 -5.8585758 -0.77777016 2
-1.5924666 -3.8732038 0.66328216 4
-2.3986654 -5.834044 -0.55187017 27
-2.4098444 -5.8612337 -0.33212397 38
-1.5947064 -3.8786514 0.96818936 19
-2.4173465 -5.8794804 -0.1109624 28
-0.41469875 -0.99919772 -0.28987733 3
-2.4360638 -5.8695846 0.11092749 34
-0.5849067 -1.409306 -0.35227334 5
-2.4392207 -5.8771911 0.33348471 42
-0.58248997 -1.403483 -0.29537234 8
-2.4340372 -5.8647017 0.55553073 34
-2.4253688 -5.8438153 -1.0021192 5
-2.4426241 -5.8853917 0.7824012 37
-2.4281664 -5.8505559 -0.77777016 2
-2.4427848 -5.8857784 1.0093151 23
-2.4263997 -5.8462996 -0.55378759 32
-1.5992134 -3.8532319 0.81093824 1
-2.426971 -5.8476758 -0.33180997 40
-1.6053187 -3.8679423 0.96683961 2
-2.4375968 -5.8732786 -0.1109973 31
-1.5551202 -3.7469914 1.0870399 1
-0.40996975 -0.97814554 -0.28418332 4
-2.4542186 -5.8555126 0.11082278 37
-0.58078313 -1.3856887 -0.34687454 5
-2.4604931 -5.8704829 0.33358938 40
-0.58510882 -1.3960093 -0.29422748 8
-2.4568045 -5.8616819 0.55605364 34
-2.4365897 -5.8134518 -0.99836475 5
-2.4570146 -5.8621831 0.7804513 37
-2.451643 -5.8493676 -0.77874511 2
-2.4648423 -5.8808594 1.0099409 28
-2.4475625 -5.839632 -0.55396187 35
-1.5845748 -3.780632 0.79681838 1
-2.4458244 -5.8354845 -0.33160061 33
-1.6022383 -3.8227754 0.95694178 1
-2.4573107 -5.8628898 -0.1109624 28
-1.5801383 -3.7700472 1.0953223 1
-0.42675903 -1.0088062 -0.29350081 4
-2.4751809 -5.8510256 0.11089259 37
-0.57930112 -1.369397 -0.34327531 6
-2.4744997 -5.8494153 0.33285668 36
-0.59661901 -1.4103343 -0.29766202 8
-2.4785576 -5.8590078 0.55657655 34
-2.4597025 -5.8144364 -0.99992913 7
-2.4756672 -5.8521748 0.78020751 40
-2.4656129 -5.8284078 -0.77703893 5
-2.4851 -5.8744726 1.0102538 29
-2.4684665 -5.8351531 -0.5543105 30
-1.6001627 -3.7825892 0.79834485 2
-2.465162 -5.827342 -0.33160061 40
-1.5982029 -3.7779565 0.94704396 2
-2.4829719 -5.869442 -0.11124164 28
-1.6302646 -3.8537467 1.1212041 1
-0.42741692 -1.0001296 -0.29143023 4
-2.5036819 -5.8584633 0.11120673 34
-0.58431631 -1.3672646 -0.34327531 6
-2.5014164 -5.8531623 0.33358938 34
-0.59869802 -1.4009169 -0.29613557 7
-2.5250704 -5.9085112 0.56215453 30
-2.5050616 -5.861692 -1.0096281 5
-2.5142622 -5.8832202 0.78556979 37
-2.4799378 -5.8029032 -0.7748453 5
-2.5368893 -5.9361668 1.0224557 28
-2.4914026 -5.829731 -0.55465913 32
-2.5194688 -5.8954034 -0.33599684 21
-1.6227605 -3.7971609 0.95334256 1
-2.5335438 -5.9283385 -0.11253311 15
-1.6185664 -3.7873468 1.1036044 1
-0.42537567 -0.98628938 -0.28780678 3
-3.6238811 -8.4024448 0.15972443 13
-0.57958609 -1.3438466 -0.33787647 6
-3.6265848 -8.4087133 0.47992072 35
-0.59245533 -1.3736856 -0.29079291 7
-3.6165786 -8.3855124 -1.446393 1
-2.5471222 -5.905838 0.78971332 39
-2.508601 -5.8165212 -0.77777016 2
-2.576118 -5.9730678 1.0302774 18
-2.5059869 -5.8104601 -0.55361331 27
-2.6761565 -6.2050209 1.3135291 30
-3.6194661 -8.3922081 -0.47897866 14
-2.6810679 -6.2164087 1.5629599 42
-3.6215053 -8.3969364 -0.1596197 34
-1.6165806 -3.7482545 1.0937693 1
-0.42341712 -0.97240001 -0.28418332 3
-3.6523907 -8.3879108 0.15968952 22
-0.58427346 -1.3418152 -0.33787647 6
-3.655117 -8.3941717 0.47981605 26
-0.60273331 -1.3842093 -0.29346424 2
-2.9740753 -6.8301229 0.65175062 3
-3.6332092 -8.3438597 -1.4413872 1
-2.5677221 -5.8969107 0.78971332 37
-1.8917137 -4.3444214 -0.58180422 1
-2.6143019 -6.0038838 1.0371605 29
-2.5031867 -5.748702 -0.54855824 15
-2.6946647 -6.1884413 1.3120027 38
-3.6471434 -8.3758602 -0.47876933 45
-2.686413 -6.1694913 1.553512 22
-3.650794 -8.384244 -0.1596197 34
-1.6473933 -3.7833269 1.105675 1
-0.43674195 -0.99398309 -0.2909126 4
-3.6809902 -8.3775835 0.15972443 37
-0.58401638 -1.3291656 -0.33517706 7
-3.6941812 -8.4076042 0.48128146 42
-0.61363822 -1.3965821 -0.29651719 1
-3.578578 -8.1445026 0.77830076 8
-3.6592693 -8.3281479 -1.4407614 1
-2.5864642 -5.8865461 0.7894696 37
-3.6716771 -8.3563871 -1.1207105 4
-2.7184279 -6.186883 1.0703247 27
-2.5414717 -5.7841473 -0.55274171 22
-2.7025354 -6.150713 1.3058968 33
-3.6692748 -8.3509197 -0.47803661 45
-2.6849074 -6.1105938 1.5409148 4
-3.6793816 -8.3739214 -0.15965462 38
-1.6506048 -3.7566192 1.0994633 1
-0.44038215 -0.99237567 -0.2909126 4
-3.7100487 -8.3603802 0.15965462 39
-0.58097959 -1.3092039 -0.33067805 7
-3.7160604 -8.3739262 0.48013008 45
-0.61875284 -1.3943237 -0.29651719 1
-3.6213355 -8.16047 0.78108978 12
-3.7009864 -8.3399582 -1.4451416 1
-2.6048014 -5.8697686 0.78849465 37
-3.7055011 -8.350132 -1.1216854 4
-2.735477 -6.1642389 1.0681345 23
-2.6006379 -5.8603868 -0.56093436 20
-2.7242644 -6.1389718 1.3055152 20
-3.701478 -8.3410664 -0.47824597 40
-3.7141044 -8.3695192 -0.15982914 31
-3.745599 -8.4404907 2.4743102 12
-0.45393339 -1.0138313 -0.2976419 4
-3.7451069 -8.3644571 0.15996876 18
-0.58691061 -1.3108273 -0.33157787 7
-3.7519705 -8.3797865 0.48117679 19
-1.1079515 -2.474539 -0.52701443 1
-3.7395658 -8.3520813 0.80061263 12
-1.3892529 -3.1028075 -0.53844744 1
-2.6218183 -5.8556633 0.78776342 39
-1.9201249 -4.2884765 -0.57692945 1
-3.0141244 -6.731854 -0.6453011 2
-2.759048 -6.1621575 1.3123842 31
-4.5118322 -10.076889 -0.57862633 16
-4.793541 -10.706067 -0.20475163 100
-3.7964621 -8.4791555 2.4893215 10
-0.45065695 -0.99623954 -0.29298314 6
-6.5184045 -14.409834 0.27606216 100
-0.59193945 -1.3085641 -0.33157787 7
-6.5236335 -14.421393 0.82952493 15
-1.1142083 -2.4631114 -0.52548796 1
-3.7691445 -8.3322153 0.80008972 15
-2.6500101 -5.8582139 0.7894696 40
-1.9333047 -4.2738371 -0.5759545 1
-1.6901807 -3.7363782 0.64951593 6
-3.0547314 -6.7529063 -0.64843875 2
-2.7834978 -6.153307 1.3127658 41
-4.6476259 -10.27422 -0.59097761 76
-6.5142832 -14.400724 -0.27588764 57
-2.3854563 -5.2733808 1.5508437 1
-0.45476016 -0.99649709 -0.29350081 4
-6.5678134 -14.391777 0.27613199 100
-0.59303933 -1.2995025 -0.32977825 7
-6.5697622 -14.396048 0.82931554 33
-6.8181744 -14.940383 -3.1922345 3
-3.795927 -8.3178577 0.79991543 10
-1.4196216 -3.1107578 -0.54157615 1
-2.6694221 -5.8493938 0.7894696 39
-1.9672462 -4.3107448 -0.58180422 1
-3.078717 -6.7462649 1.17451 4
-3.0605645 -6.7064881 -0.64495248 2
-2.798182 -6.1315403 1.3100946 37
-5.6675911 -12.419157 -0.71543252 63
-1.7386651 -3.8098648 0.96683961 1
-5.663712 -12.410657 -0.23812063 112
-2.4093466 -5.2795014 1.5549848 1
-0.4567925 -0.99131453 -0.29246551 6
-6.6180072 -14.36216 0.27602726 100
-0.59127384 -1.2831612 -0.32617903 7
-6.6283331 -14.384569 0.83004826 30
-1.1379497 -2.4695375 -0.52854091 1
-3.8280559 -8.3075085 0.800264 10
-2.6891816 -5.8359647 0.78898215 40
-1.9830327 -4.3035059 -0.58180422 1
-3.1927061 -6.9286952 1.2082998 14
-3.9698048 -8.6151266 -0.82989699 15
-2.8165283 -6.1123281 1.3081865 28
-3.9761641 -8.6289272 -0.4979243 100
-2.8283279 -6.1379347 1.5602605 17
-6.6221919 -14.371241 -0.27620178 116
-3.8807149 -8.4217873 2.4846628 26
-0.46984884 -1.0108165 -0.29867718 4
-6.6706548 -14.351015 0.27623668 48
-0.59059721 -1.2705903 -0.32347962 7
-6.6701045 -14.349832 0.82931554 33
-1.1428226 -2.4586289 -0.52701443 1
-3.8522241 -8.2875414 0.79956681 12
-2.7034993 -5.8162141 0.78751969 37
-1.9972926 -4.296906 -0.58180422 1
-3.3397286 -7.1849761 1.2549173 25
-4.0000315 -8.6055279 -0.83024561 22
-3.9980218 -8.6012049 -0.49708691 100
-6.6714978 -14.352829 -0.27627158 122
-2.8321218 -6.0929284 1.8003453 33
-0.48339906 -1.0300739 -0.30488884 4
-6.7240586 -14.32828 0.27627158 50
-0.59359443 -1.2648889 -0.3225798 7
-6.7158666 -14.310823 0.82847822 33
-6.9818521 -14.877611 -3.1945243 3
-3.8131664 -8.1254663 0.78527325 31
-6.7043872 -14.286362 -2.4995098 4
-2.7281718 -5.8134546 0.78849465 37
-2.0130281 -4.289557 -0.58180422 1
-7.0216055 -14.962321 2.6177742 86
-4.0273132 -8.5817919 -0.82937407 20
-4.0346107 -8.5973425 -0.49771494 100
-2.4389529 -5.1971583 1.3254116 5
-6.7189617 -14.317418 -0.27606216 130
-2.8692074 -6.113987 1.8096628 36
-0.4802002 -1.0144962 -0.30074772 4
-6.7681141 -14.298674 0.27613199 51
-0.59945315 -1.2664363 -0.32347962 7
-6.7675586 -14.2975 0.82900155 33
-1.1532396 -2.4363947 -0.52396148 1
-3.8230424 -8.0767603 0.78178704 29
-1.4747479 -3.1156299 -0.54595625 1
-2.7440379 -5.7971988 0.78751969 34
-2.0272419 -4.2828579 -0.58180422 1
-4.0557494 -8.5683889 -0.82937407 25
-4.0613894 -8.5803051 -0.49750561 100
-2.884712 -6.0943942 1.5566612 16
-6.762125 -14.286021 -0.27588764 133
-0.48040813 -1.0058409 -0.29867718 4
-6.8162608 -14.271353 0.27606216 50
-0.60219043 -1.2608192 -0.3225798 7
-6.8225894 -14.284603 0.8296296 33
-1.1515836 -2.4110954 -0.51938206 1
-3.8494947 -8.0597706 0.78143841 35
-6.801475 -14.240396 -2.4995098 4
-6.8297939 -14.299687 -1.945766 3
-4.0839162 -8.5505838 -0.82902545 32
-4.0921764 -8.5678787 -0.49761027 100
-2.918566 -6.1106648 1.5634098 35
-6.8179846 -14.274961 -0.27613199 136
-0.49883169 -1.0355705 -0.30799466 6
-6.8626809 -14.246869 0.27602726 53
-0.60298538 -1.2517926 -0.32078022 7
-6.8707881 -14.2637 0.82973427 33
-1.1629808 -2.4143384 -0.52090853 1
-3.8762007 -8.0469608 0.78143841 35
-1.4719176 -3.0556889 -0.53719598 1
-1.7755054 -3.6859345 0.50234544 12
-2.0563471 -4.2689595 -0.58180422 1
-4.1139779 -8.5405846 -0.82937407 27
-2.4946575 -5.1788888 1.1173775 5
-4.1110315 -8.5344677 -0.49645889 100
-2.9295108 -6.0816402 1.558461 35
-6.8652844 -14.252274 -0.27613199 140
-2.9326274 -6.08811 1.810698 58
-0.50853711 -1.0458968 -0.31161812 5
-6.9122291 -14.216225 0.27592254 49
-0.5973438 -1.2285434 -0.31538138 7
-6.919528 -14.231236 0.82931554 33
-1.171822 -2.4100597 -0.52090853 1
-3.4587338 -7.1134996 0.6920166 13
-1.4900177 -3.0644855 -0.5396989 1
-2.7993863 -5.7574344 0.78605729 31
-6.9294577 -14.251658 -1.945766 3
-4.1461244 -8.5272398 -0.82954836 22
-2.5179148 -5.1785383 1.1192856 1
-4.143158 -8.5211391 -0.49656355 100
-2.9517815 -6.0708623 1.558461 34
-6.9174757 -14.227015 -0.27613199 136
-2.9464743 -6.059947 1.8055216 36
-0.51540464 -1.0511429 -0.3136887 5
-6.9663768 -14.207589 0.27620178 47
-0.59798276 -1.2195569 -0.31358176 7
-6.9622855 -14.199245 0.82879221 33
-1.1849935 -2.4167371 -0.52319825 1
-3.4989698 -7.1359801 0.69532853 37
-1.491475 -3.0417914 -0.53657019 1
-2.821085 -5.7534666 0.78678846 36
-2.0860996 -4.2544999 -0.58180422 1
-1.8028151 -3.6767542 0.64857727 1
-4.173502 -8.5116558 -0.82937407 27
-3.3976729 -6.92939 1.5001403 9
-4.1740303 -8.5127325 -0.49687758 100
-2.9607439 -6.0382943 1.5526122 33
-6.9610944 -14.196816 -0.27599236 137
-2.955497 -6.0275936 1.7987924 18
-0.52096754 -1.0527097 -0.31472397 6
-7.0192904 -14.183753 0.27623668 100
-0.60071993 -1.2138638 -0.31268197 7
-7.0142817 -14.173633 0.82879221 30
-7.2736492 -14.697732 -3.187655 3
-3.5171478 -7.1070366 0.69375974 40
-1.5113753 -3.0540087 -0.5396989 1
-2.8421535 -5.7430882 0.78678846 22
-7.0287833 -14.202935 -1.945766 3
-4.1993685 -8.4855871 -0.82832819 20
-3.4282722 -6.9274478 1.5024301 12
-4.2060885 -8.4991674 -0.49698225 100
-2.9629755 -5.9872308 1.5422645 22
-7.0148554 -14.174791 -0.27606216 132
-2.9784262 -6.0184522 1.79931 15
-0.52531821 -1.0527049 -0.31524161 6
-7.0921803 -14.212287 0.27724892 58
-0.60300165 -1.2083777 -0.31178215 7
-7.1816373 -14.391553 0.84292293 23
-1.1930704 -2.3908386 -0.51938206 1
-3.5326896 -7.0792894 0.69219089 34
-1.5267867 -3.0595853 -0.54157615 1
-7.3204794 -14.669785 -2.0130379 14
-2.564049 -5.1381941 0.90950996 2
-4.2239261 -8.4644842 -0.82763094 20
-3.4468424 -6.9072576 1.5005219 11
-4.2360334 -8.4887466 -0.49719158 100
-3.0045669 -6.0209646 1.553512 13
-3.004406 -6.0206423 1.8029335 28
-0.54809922 -1.088827 -0.32662964 9
-7.3953004 -14.69114 0.28709209 88
-0.59845388 -1.1888591 -0.30728313 7
-7.4141293 -14.728545 0.86417133 72
-1.2049396 -2.3936739 -0.52090853 1
-3.5358791 -7.0242038 0.68800741 14
-7.3604326 -14.621874 -2.5927448 4
-1.8636625 -3.7022605 0.50892639 1
-7.3752122 -14.651235 -2.0140128 10
-7.4252706 -14.750677 2.6155844 56
-4.2615094 -8.4657049 -0.82919973 22
-3.4815252 -6.9162269 1.5051013 27
-4.2584548 -8.4596367 -0.49635422 100
-3.0387089 -6.0365496 1.5602605 33
-7.3584361 -14.617908 -0.28566098 100
-3.0401702 -6.0394526 1.8117334 36
-0.55258125 -1.0887262 -0.32714728 16
-7.4485025 -14.675452 0.28726661 92
-0.58475339 -1.1521134 -0.2982851 5
-7.4575067 -14.693192 0.86354327 52
-1.2164249 -2.3966677 -0.52243501 1
-3.5753841 -7.0444198 0.69114506 3
-1.5440009 -3.0420761 -0.54032463 1
-1.8759294 -3.6960599 0.50892639 1
-7.4228587 -14.624927 -2.0137689 10
-7.4884491 -14.754157 2.6205902 100
-4.2922645 -8.4568567 -0.82972264 17
-3.5079954 -6.9116464 1.5066278 34
-4.2873883 -8.4472494 -0.49645889 47
-3.056946 -6.0229645 1.5593607 39
-7.410491 -14.600559 -0.28580061 95
-3.0636783 -6.0362287 1.8138039 37
-0.56116229 -1.0951929 -0.32973546 34
-7.5084448 -14.653862 0.28740624 92
-0.57850909 -1.1290478 -0.29288629 3
-7.5093155 -14.655561 0.86301994 68
-1.2184564 -2.3780015 -0.51938206 1
-1.9106836 -3.7289872 0.36657706 1
-1.5538687 -3.032609 -0.5396989 1
-2.6305804 -5.1339746 0.70830464 1
-7.4889169 -14.61575 -2.0164502 7
-7.5333352 -14.70244 2.6165228 94
-4.3292475 -8.4491796 -0.83059424 5
-7.5470881 -14.72928 3.2170396 52
-4.3270779 -8.4449453 -0.49729624 73
-3.0702748 -5.9921045 1.5544118 33
-7.4637623 -14.566658 -0.28569588 50
-3.0850713 -6.0209818 1.8127686 34
-0.56124443 -1.0864605 -0.32766491 44
-7.5459843 -14.607563 0.28698736 28
-0.58225 -1.1271231 -0.29288629 3
-7.4176245 -14.359084 0.84700513 50
-1.2263354 -2.3739476 -0.51938206 1
-2.9500687 -5.7107611 0.78922588 28
-7.397099 -14.31935 2.5526977 40
-4.3544989 -8.4294662 -0.83007127 10
-7.413878 -14.35183 3.1399529 18
-4.3568916 -8.4340982 -0.49750561 100
-3.095495 -5.9922786 1.5571111 27
-7.5019307 -14.522285 -0.28531194 35
-3.1050205 -6.0107183 1.8127686 37
-0.56165105 -1.0775437 -0.32559437 34
-7.0587659 -13.542446 0.26656806 94
-0.5863772 -1.1249815 -0.29288629 3
-7.4166598 -14.229076 0.84093416 38
-1.8814156 -3.60955 0.35611835 5
-7.3837929 -14.166019 -2.5301712 4
-2.9718974 -5.7016706 0.7894696 45
-7.0549302 -13.535087 -1.8741068 3
-7.6348801 -14.647738 2.61621 100
-4.3807607 -8.4046154 -0.82919973 5
-7.6370292 -14.65186 3.2116971 45
-4.3877749 -8.4180727 -0.49750561 100
-3.3678408 -6.4612994 1.682184 8
-7.1179204 -13.655935 -0.26880196 14
-3.1198866 -5.9855924 1.8086275 38
-0.56881565 -1.0825158 -0.32766491 34
-0.58829159 -1.1195806 -0.29198647 3
-4.159255 -7.9154983 0.46861616 33
-1.2611428 -2.4000871 -0.52701443 1
-1.9063495 -3.6279833 0.35855871 1
-2.9852481 -5.6812406 0.7880072 100
-7.1865716 -13.6768 -1.8970182 3
-7.6852498 -14.625836 2.6168358 90
-4.4160213 -8.4041519 -0.83059424 5
-7.6901402 -14.635144 3.2136052 52
-4.4119501 -8.3964043 -0.49708691 95
-3.6167698 -6.8830924 1.7951094 26
-7.165956 -13.637567 -0.26890668 29
-3.1451101 -5.9854746 1.8117334 34
-0.58254105 -1.0993005 -0.33335894 63
-7.2135167 -13.61247 0.26890668 3
-0.59219611 -1.1175203 -0.29198647 3
-4.1653504 -7.8603415 0.4662087 2
-1.9115387 -3.607223 0.35716423 10
-3.0022728 -5.6655235 0.78727597 93
-2.2187073 -4.1868744 -0.58180422 1
-7.7427311 -14.611139 2.6190257 78
-4.457458 -8.4115725 -0.83286029 5
-7.7457762 -14.616885 3.2155132 35
-4.4318805 -8.3633051 -0.4960402 42
-3.6279995 -6.8463187 1.7888107 20
-7.6638932 -14.462365 -0.28569588 80
-3.1723161 -5.9864082 1.8153567 28
-0.5809117 -1.0870374 -0.33025309 79
-0.59976727 -1.1223212 -0.29378608 6
-1.2593614 -2.3565941 -0.51938206 1
-1.9278748 -3.6075573 0.35786149 1
-0.74017209 -1.3850553 -0.24873079 1
-3.0304513 -5.6707659 0.7894696 39
-0.73819888 -1.3813629 -0.19230983 1
-7.7862382 -14.570086 2.6165228 22
-4.4764633 -8.3766317 -0.83094287 5
-7.7995272 -14.594953 3.2166581 29
-4.4742255 -8.3724451 -0.49750561 80
-3.6445277 -6.8198633 1.7852116 9
-7.7190418 -14.444344 -0.2858704 55
-3.1922827 -5.9735947 1.8148391 12
-0.58195323 -1.0799012 -0.32870018 81
-0.6055302 -1.1236519 -0.29468587 7
-1.9309862 -3.5832336 0.21332136 5
-1.2601289 -2.3383574 -0.51632917 1
-1.9877149 -3.6885021 0.36657706 1
-1.6071434 -2.9822948 -0.53657019 1
-3.0492859 -5.6584058 0.78922588 67
-7.8482952 -14.563684 2.6202774 52
-4.4905529 -8.3328924 -0.82815385 15
-7.851357 -14.569366 3.2170396 16
-4.5062661 -8.3620501 -0.4978196 100
-3.6868007 -6.8414097 1.7942096 22
-7.7713127 -14.420832 -0.28594023 35
-3.1984515 -5.935205 1.8065569 19
-0.58479685 -1.0761658 -0.32818255 90
-0.68076211 -1.2527648 0.024887132 2
-0.61689246 -1.1352293 -0.2982851 11
-1.9730445 -3.630873 0.21656619 1
-1.2757827 -2.3477447 -0.51938206 1
-3.7842603 -6.9639421 0.69341111 30
-1.6232028 -2.9870806 -0.53844744 1
-3.0690188 -5.647727 0.78922588 100
-2.2624297 -4.1634111 -0.58180422 1
-7.8924818 -14.524051 2.6180873 48
-4.5215154 -8.3206682 -0.82850248 15
-4.529706 -8.3357401 -0.49719158 100
-3.7106593 -6.8284988 1.7942096 33
-7.8168292 -14.384832 -0.28576571 60
-3.2191498 -5.9240041 1.8065569 28
-0.58854979 -1.0741179 -0.32818255 88
-0.65822536 -1.2012775 0.023909796 7
-0.62272424 -1.1364871 -0.29918489 15
-3.8063376 -6.94666 0.4151288 24
-0.75755173 -1.3825507 -0.30643925 4
-3.8066311 -6.9471955 0.69306248 19
-1.6279244 -2.9710023 -0.53657019 1
-3.0887144 -5.6369801 0.78922588 100
-7.8992105 -14.416254 -2.0184 3
-7.9573703 -14.522398 2.6227803 94
-4.5629787 -8.327549 -0.83076853 12
-3.8066268 -6.9471879 1.5398285 31
-4.5626144 -8.3268843 -0.49761027 100
-3.7344725 -6.8155046 1.7942096 30
-7.868916 -14.360966 -0.2858355 90
-3.2258842 -5.8873181 1.7987924 19
-0.59322983 -1.0737479 -0.32870018 83
-1.9650021 -3.5566602 0.070926577 2
-0.62480277 -1.130895 -0.2982851 15
-0.66836846 -1.2097491 0.072432965 6
-0.75762612 -1.3713057 -0.30453116 46
-3.8183327 -6.9111948 0.69079643 1
-3.1045322 -5.6192136 0.78825092 78
-2.2914405 -4.1475148 -0.58180422 1
-7.9975066 -14.475513 2.6193388 12
-4.5881658 -8.304595 -0.83007127 12
-8.005393 -14.489787 3.217803 13
-4.5810285 -8.2916765 -0.49645889 45
-3.7554131 -6.7973104 1.7928599 12
-7.9170632 -14.32991 -0.28576571 95
-3.2641654 -5.9081497 1.8086275 3
-0.5979144 -1.0733583 -0.32921782 88
-1.9812977 -3.5567672 0.071066201 38
-0.63633317 -1.1423266 -0.30188432 13
-3.8255827 -6.8675733 0.41198865 13
-0.76240826 -1.3686528 -0.30453116 78
-3.8482513 -6.9082675 0.69184226 3
-0.79307085 -1.4236974 -0.25811687 1
-3.1260602 -5.6118112 0.78873837 30
-2.2865837 -4.1048074 -0.57692945 1
-4.3642931 -7.83465 1.4204249 15
-4.626822 -8.305934 -0.83181441 10
-8.0626106 -14.473761 3.2204742 65
-4.6157756 -8.2861042 -0.49708691 100
-3.7791173 -6.7841601 1.7928599 15
-7.9719014 -14.310922 -0.28594023 70
-3.2922897 -5.9102211 1.8127686 21
-0.60165745 -1.0712646 -0.32921782 86
-0.65940219 -1.1740805 -0.31088236 15
-3.8690925 -6.8890061 0.41408208 31
-0.75660592 -1.3471538 -0.30033335 72
-3.8791718 -6.9069524 0.69306248 53
-0.77482009 -1.3795846 -0.25060803 14
-3.1485462 -5.6060572 0.7894696 99
-2.3203397 -4.1314168 -0.58180422 1
-8.1109438 -14.441718 2.6234059 36
-4.6411519 -8.2636757 -0.82919973 15
-8.1159687 -14.450664 3.2216191 91
-4.6554298 -8.2890968 -0.4982383 100
-3.8056383 -6.7760243 1.7942096 26
-3.3053322 -5.8852181 1.8086275 29
-0.60348946 -1.0657958 -0.32818255 88
-0.68654126 -1.2124698 -0.32168001 31
-3.9127982 -6.9102182 0.41617551 45
-0.75936908 -1.3410878 -0.29957011 71
-3.9160202 -6.9159083 0.69532853 79
-0.76405787 -1.3493685 -0.24560212 37
-3.1690741 -5.5967603 0.78971332 58
-2.3347468 -4.123292 -0.58180422 1
-8.1535196 -14.399567 2.620903 86
-4.6738963 -8.2543592 -0.82989699 17
-8.1624918 -14.415412 3.2200925 81
-4.6833515 -8.2710581 -0.49813363 100
-3.8331087 -6.7694821 1.7960092 37
-2.0139625 -3.5567694 -0.071345441 5
-3.3353739 -5.8904548 1.8138039 34
-0.60912156 -1.0670382 -0.32921782 86
-0.68980324 -1.2083735 -0.32123011 41
-3.9388757 -6.8999867 0.41638488 40
-0.72316682 -1.2668186 -0.28354216 62
-3.933223 -6.8900847 0.69410831 21
-0.77463925 -1.3569864 -0.24747932 60
-3.1866229 -5.5822158 0.78922588 37
-2.3491256 -4.1151171 -0.58180422 1
-8.2125473 -14.386457 2.6237187 86
-4.7036686 -8.2397242 -0.83007127 7
-8.2117882 -14.385127 3.2197111 58
-4.7052631 -8.2425184 -0.49740094 80
-8.2245026 -14.407401 3.8300166 36
-3.3626194 -5.8905206 1.8174273 29
-0.6147697 -1.0682542 -0.33025309 81
-0.69012904 -1.1992023 -0.3194305 41
-3.9499865 -6.8636918 0.41502413 18
-0.70897865 -1.2319564 -0.27629143 82
-4.5763779 -7.9521403 0.80270439 3
-0.77543014 -1.3474257 -0.24622785 74
-3.1783648 -5.5228839 0.7824012 19
-2.3634756 -4.1068921 -0.58180422 1
-8.2508917 -14.337157 2.6199644 48
-4.7443275 -8.2439775 -0.83216304 2
-8.2570553 -14.347867 3.217803 22
-8.2718277 -14.373537 3.8286669 21
-0.61849487 -1.0661018 -0.33025309 77
-4.4895363 -7.7386293 0.15616414 1
-0.6982224 -1.2035284 -0.32123011 36
-3.9739211 -6.8498616 0.41502413 2
-0.71130425 -1.2260777 -0.27552819 73
-4.6161056 -7.9567976 0.8047961 1
-0.78706765 -1.3566713 -0.24841793 79
-3.1906509 -5.4997363 0.78069502 3
-8.3190174 -14.339519 3.8273172 2
-8.2365026 -14.197289 -0.2864987 5
-3.8428113 -6.6238675 2.0519173 1
-0.62026197 -1.0606011 -0.32921782 81
-0.71028948 -1.2145413 -0.32482931 36
-0.71657085 -1.225282 -0.27590981 72
-0.78780961 -1.3470949 -0.24716645 79
-0.62003613 -1.0517727 -0.32714728 81
-0.71650404 -1.2154121 -0.32572913 42
-0.72383457 -1.227847 -0.27705467 82
-0.7834785 -1.3290216 -0.24435063 74
-0.65535462 -1.1116838 0.34578225 1
-0.62826878 -1.0581251 -0.32973546 72
-0.65135354 -1.0970044 0.022269271 1
-0.71235949 -1.1997501 -0.32212991 37
-0.65565842 -1.1042546 0.067304038 1
-0.72768837 -1.225567 -0.27705467 82
-0.64795661 -1.0912833 0.11103642 1
-0.74831784 -1.2603109 -0.23214875 57
-0.69929761 -1.1777514 0.16817969 2
-0.65166432 -1.0975277 -0.15672398 1
-0.64645785 -1.0887591 0.20054899 1
-0.64490497 -1.0861437 -0.11051348 1
-0.63848144 -1.0753253 0.24309066 3
-0.64342219 -1.0836464 -0.066047974 3
-0.63973063 -1.0774292 0.28928706 1
-0.65747911 -1.107321 -0.0224787 4
-0.64602202 -1.0880251 0.33905295 10
-0.63295054 -1.0575833 -0.33025309 83
-0.64388263 -1.0758495 0.021885317 10
-0.69852942 -1.1671575 -0.31403166 22
-0.65130359 -1.088249 0.066466667 16
-0.72994554 -1.2196501 -0.27629143 50
-0.64459974 -1.0770476 0.10981624 18
-0.6746009 -1.1271759 -0.20805784 25
-0.63204461 -1.0560696 0.15111798 14
-0.64733601 -1.0816196 -0.15477407 12
-0.64416778 -1.0763259 0.19867177 16
-0.64766926 -1.0821764 -0.11033917 16
-0.64021468 -1.0697207 0.24232742 25
-0.64002115 -1.0693974 -0.065315276 22
-0.63948464 -1.068501 0.28748745 21
-0.65209806 -1.0895765 -0.022164555 25
-0.64088726 -1.0708445 0.33439422 20
-0.63963193 -1.06033 -0.331806 74
-0.64246958 -1.065034 0.021710794 31
-0.65025663 -1.0779427 -0.29063675 27
-0.64271849 -1.0654466 0.065210603 45
-0.64800113 -1.0742038 -0.2438539 34
-0.64732623 -1.073085 0.10964192 37
-0.64792091 -1.0740708 -0.19867177 39
-0.63675249 -1.0555567 0.15136172 52
-0.63880324 -1.0589563 -0.1518492 31
-0.64588022 -1.0706879 0.19804603 47
-0.6555593 -1.0867331 -0.11103642 41
-0.64495891 -1.0691606 0.24270904 37
-0.63756025 -1.0568957 -0.064687245 41
-0.63717097 -1.0562505 0.28478804 42
-0.64660126 -1.0718831 -0.021850413 40
-0.64861274 -1.0752176 0.33646476 27
-0.64031839 -1.0531387 -0.33025309 79
-0.65033889 -1.0696195 0.021850413 44
-0.65097815 -1.070671 -0.28928706 31
-0.65058416 -1.0700229 0.065629289 53
-0.64460725 -1.0601927 -0.24118257 39
-0.650033 -1.0691165 0.10946761 41
-0.65166616 -1.0718026 -0.19867177 34
-0.64868355 -1.066897 0.15331164 59
-0.64352709 -1.0584161 -0.15209293 40
-0.64653492 -1.0633632 0.19710742 53
-0.6427874 -1.0571995 -0.10824743 53
-0.65276682 -1.0736128 0.24423552 38
-0.64747131 -1.0649033 -0.065315276 46
-0.64591616 -1.0623454 0.28703755 43
-0.64722222 -1.0644935 -0.021745699 50
-0.65035474 -1.0696456 0.33542949 33
-0.63995308 -1.0443085 -0.32818255 79
-0.65197891 -1.0639329 0.021780603 49
-0.65776616 -1.0733769 -0.29063675 35
-0.65118456 -1.0626366 0.065315276 61
-0.6483041 -1.0579361 -0.24118257 44
-0.64855582 -1.058347 0.10859606 49
-0.64301789 -1.0493098 -0.19491734 34
-0.65344095 -1.0663188 0.15355538 57
-0.64825493 -1.0578558 -0.15233667 40
-0.64611429 -1.0543628 0.19585595 45
-0.64439178 -1.0515518 -0.10789881 56
-0.65445888 -1.0679798 0.24347228 38
-0.65222812 -1.0643395 -0.065419942 47
-0.6506387 -1.0617459 0.28748745 45
-0.64884436 -1.0588177 -0.021675888 49
-0.64802819 -1.0574859 0.33232364 33
-0.64765501 -1.0486429 -0.33025309 77
-0.65043485 -1.0531437 0.021606078 51
-0.64922088 -1.0511782 -0.28523794 38
-0.66223639 -1.0722522 0.066047974 65
-0.65199304 -1.0556667 -0.24118257 42
-0.656434 -1.0628572 0.1092933 46
-0.64460075 -1.0436976 -0.19429161 39
-0.65090048 -1.0538976 0.15209293 68
-0.65507293 -1.0606534 -0.1530679 45
-0.65601879 -1.0621849 0.19773316 52
-0.65015233 -1.0526863 -0.10824743 60
-0.6509614 -1.0539963 0.24080095 42
-0.6527909 -1.0569586 -0.06510593 50
-0.65843695 -1.0661002 0.28928706 45
-0.66199344 -1.0718588 -0.021990033 58
-0.65171558 -1.0552174 0.33232364 36
-0.65539497 -1.0529361 -0.33232364 77
-0.65410703 -1.0508668 0.021606078 63
-0.65288621 -1.0489056 -0.28523794 41
-0.66069812 -1.0614558 0.065524615 92
-0.66293621 -1.0650516 -0.2438539 55
-0.66119289 -1.0622509 0.10946761 71
-0.65554708 -1.0531805 -0.19648169 61
-0.65142828 -1.0465634 0.15136172 87
-0.65457529 -1.0516192 -0.15209293 54
-0.66389799 -1.0665967 0.19898464 69
-0.65487576 -1.052102 -0.10842174 78
-0.65463656 -1.0517176 0.24080095 67
-0.65436554 -1.0512822 -0.064896584 100
-0.65288621 -1.0489056 0.28523794 65
-0.66678762 -1.0712391 -0.022024937 100
-0.66152018 -1.0627766 0.33542949 53
-0.65803987 -1.0490054 -0.331806 74
-0.65777123 -1.0485772 0.021606078 100
-0.66275698 -1.0565251 -0.28793734 70
-0.65378582 -1.0422239 0.064477898 100
-0.659347 -1.0510892 -0.24118257 72
-0.66383809 -1.0582485 0.1092933 100
-0.66026908 -1.0525591 -0.19679455 100
-0.65085804 -1.0375565 0.15038677 100
-0.65191287 -1.0392382 -0.1506305 100
-0.66026908 -1.0525591 0.19679455 100
-0.66066182 -1.0531851 -0.10877037 100
-0.659347 -1.0510892 0.24118257 100
-0.65166312 -1.0388401 -0.064268552 100
-0.65654361 -1.0466201 0.28523794 100
-0.67052287 -1.068905 -0.022024937 100
-0.66727912 -1.0637341 0.33646476 71
-0.6575684 -1.0401703 -0.32973546 75
-0.66677016 -1.0547261 0.021780603 100
-0.66227561 -1.0476165 -0.28613773 83
-0.66062158 -1.0450001 0.06479191 122
-0.65986478 -1.0438029 -0.24003771 100
-0.66433406 -1.0508726 0.10877037 100
-0.6618281 -1.0469085 -0.19616883 100
-0.65871876 -1.04199 0.15136172 99
-0.65765804 -1.0403121 -0.15111798 100
-0.6607725 -1.0452387 0.19585595 100
-0.66007555 -1.0441363 -0.10807312 100
-0.66615921 -1.0537596 0.24232742 96
-0.65955436 -1.0433118 -0.064687245 100
-0.66227561 -1.0476165 0.28613773 100
-0.66142744 -1.0462748 -0.021606078 100
-0.66376215 -1.0499679 0.33284128 45
-0.66327125 -1.0411273 -0.33077073 86
-0.6650756 -1.0439596 0.021606078 100
-0.66802257 -1.0485854 -0.28703755 93
-0.67177719 -1.054479 0.065524615 100
-0.66244942 -1.0398374 -0.23965611 83
-0.65622264 -1.0300633 0.10685294 83
-0.66123295 -1.0379279 -0.19491734 73
-0.66555172 -1.0447069 0.15209293 100
-0.66555172 -1.0447069 -0.15209293 100
-0.66335571 -1.0412599 0.19554308 91
-0.6626457 -1.0401454 -0.10789881 100
-0.65717518 -1.0315584 0.23774801 51
-0.66319221 -1.0410032 -0.064687245 100
-0.66278726 -1.0403676 0.28478804 58
-0.66292673 -1.0405866 -0.02153627 100
-0.65185338 -1.0232049 0.32507673 43
-0.66481405 -1.0355543 -0.32973546 71
-0.65035027 -1.0130247 0.021012697 100
-0.6643092 -1.034768 -0.28388822 75
-0.65818995 -1.0252361 0.063849866 100
-0.6586507 -1.0259539 -0.23698477 78
-0.65981424 -1.0277663 0.10685294 100
-0.64564276 -1.005692 -0.1892857 99
-0.653108 -1.0173203 0.14843686 100
-0.65525281 -1.0206612 -0.14892434 100
-0.66271764 -1.0322888 0.19429161 97
-0.65120327 -1.0143534 -0.10545845 100
-0.65122628 -1.0143893 0.23431344 76
-0.6527949 -1.0168326 -0.063326508 100
-0.66325641 -1.033128 0.28343832 69
-0.66547471 -1.0365834 -0.021501364 100
-0.65750843 -1.0241746 0.326112 50
-0.67472076 -1.0429596 -0.33284128 74
-0.65388244 -1.0107484 0.021012697 100
-0.66050762 -1.0209894 -0.28073892 48
-0.66176468 -1.0229324 0.063849866 119
-0.66222793 -1.0236485 -0.23698477 100
-0.66015118 -1.0204383 0.10633001 100
-0.65773314 -1.0167006 -0.19178866 100
-0.65449864 -1.0117009 0.14794938 100
-0.65126383 -1.0067006 -0.14721817 100
-0.66846287 -1.0332863 0.19491734 100
-0.66015118 -1.0204383 -0.10633001 100
-0.66755992 -1.0318905 0.23889287 96
-0.65634036 -1.0145477 -0.063326508 100
-0.66262466 -1.0242618 0.28163871 100
-0.66908902 -1.0342541 -0.021501364 100
-0.66527677 -1.0283613 0.32818255 52
-0.67835724 -1.0405979 -0.33284128 72
-0.66177475 -1.0151604 0.021152318 100
-0.66832441 -1.0252075 -0.28253853 33
-0.65660566 -1.0072311 0.063012488 117
-0.65936428 -1.0114628 -0.23469506 100
-0.67023742 -1.0281421 0.10737588 100
-0.66451436 -1.0193629 -0.19272727 100
-0.66344643 -1.0177248 0.14916807 100
-0.65043765 -0.99776942 -0.14624321 100
-0.66775066 -1.0243274 0.19366586 100
-0.67132545 -1.0298111 -0.10755019 100
-0.67222995 -1.0311986 0.23927449 100
-0.66096848 -1.0139236 -0.063431181 100
-0.66619599 -1.0219425 0.28163871 95
-0.66723496 -1.0235363 -0.02132684 100
-0.67097235 -1.0292695 0.32921782 52
-0.67562169 -1.0285357 -0.32973546 70
-0.66751009 -1.016187 0.021222126 100
-0.68152809 -1.0375273 -0.28658766 37
-0.66888988 -1.0182875 0.063849866 117
-0.66073519 -1.0058732 -0.23393182 100
-0.66725904 -1.0158048 0.10633001 100
-0.66806853 -1.0170372 -0.19272727 100
-0.67135435 -1.0220393 0.15014303 100
-0.66263545 -1.0087661 -0.14819312 100
-0.66806853 -1.0170372 0.19272727 100
-0.66725904 -1.0158048 -0.10633001 100
-0.67690325 -1.0304867 0.23965611 93
-0.66888988 -1.0182875 -0.063849866 100
-0.67296886 -1.0244972 0.28298843 100
-0.66641217 -1.0145156 -0.021187222 100
-0.67031854 -1.0204625 0.32714728 52
-0.67707533 -1.0229492 -0.32870018 74
-0.66663831 -1.0071807 0.021082507 100
-0.67976767 -1.0270169 -0.28433815 51
-0.67684972 -1.0226084 0.064268552 119
-0.66966027 -1.0117463 -0.23583992 100
-0.6730001 -1.0167923 0.10667863 100
-0.66725349 -1.00811 -0.19147578 100
-0.68039608 -1.0279664 0.15136172 100
-0.66834396 -1.0097576 -0.1486806 100
-0.67488545 -1.0196407 0.19366586 100
-0.67190045 -1.0151309 -0.10650432 100
-0.67616183 -1.0215691 0.23812963 96
-0.67684972 -1.0226084 -0.064268552 100
-0.67761648 -1.0237669 0.28343832 95
-0.67215687 -1.0155182 -0.021257032 100
-0.66961151 -1.0116726 0.32507673 51
-0.68278575 -1.0237941 -0.32973546 75
-0.66904044 -1.0031838 0.021047601 100
-0.68659222 -1.0295016 -0.28568783 30
-0.67930704 -1.0185779 0.064163886 100
-0.67536646 -1.0126693 -0.23660316 100
-0.67543983 -1.0127792 0.10650432 100
-0.66967237 -1.0041313 -0.19116291 100
