# .PCD v0.7 - Point Cloud Data file format
VERSION 0.7
FIELDS x y z intensity
SIZE 4 4 4 4
TYPE F F F F
COUNT 1 1 1 1
WIDTH 1340
HEIGHT 1
VIEWPOINT 0 0 0 1 0 0 0
POINTS 1340
DATA ascii
17.882565 2.6885233 3.5150833 3
4.1180053 0.6191144 -0.21824093 1
25.43364 3.8237765 5.937808 11
15.327384 2.304369 -0.27054721 4
3.9143727 0.58849961 1.0606405 2
1.5998192 0.23481438 -0.43326309 7
19.21319 2.8200269 0.33896065 9
1.8336064 0.26912862 -0.42785689 3
19.181877 2.8154309 1.0160502 19
2.1697085 0.31846023 -0.4262673 2
2.6248083 0.38525775 -0.42018297 2
24.527046 3.5999713 3.0438087 10
3.3781645 0.49583206 -0.41923055 1
25.241549 3.7048428 4.0407023 21
4.4215565 0.64897645 -0.39098066 3
17.928747 2.6315022 3.5223341 3
6.886663 1.0107939 -0.36478162 2
21.027666 3.0863478 4.9066324 3
15.36699 2.2554989 -0.27110568 4
3.941251 0.57847935 1.0673697 3
1.6121031 0.23087175 -0.43636891 7
3.9886906 0.57122648 0.070333198 5
1.8345346 0.26272652 -0.42785689 3
19.244968 2.7561014 1.0188764 23
2.1863544 0.31311116 -0.42932025 2
2.6007166 0.37245259 -0.41611567 2
25.077885 3.5914423 3.1105931 21
3.3248537 0.47615737 -0.41240585 1
25.137001 3.5999084 4.0219302 10
4.3527932 0.62337017 -0.38470545 3
6.9415541 0.99411052 -0.36750308 2
20.995872 3.006851 4.8967347 3
15.386646 2.2035451 -0.2713151 4
3.9566326 0.56663543 1.0709932 13
1.591853 0.22230394 -0.43067488 7
4.0322504 0.56310797 0.071066201 1
1.8393005 0.25686023 -0.42875671 3
19.315792 2.6974704 1.0221212 28
2.1582682 0.30140442 -0.42359596 2
3.9997592 0.55857056 0.35332939 3
2.602001 0.36337212 -0.41611567 2
25.023424 3.4945474 3.1023059 21
3.3029032 0.46125388 -0.40948099 1
25.008554 3.4924707 3.9994035 13
4.4101934 0.61588806 -0.38958618 3
3.9393256 0.5501309 0.77315807 1
4.0926137 0.57153779 -0.21656619 1
3.9951229 0.55792308 0.93129736 1
15.271455 2.1326747 -0.269151 4
3.9490201 0.55148476 1.068405 2
1.5887909 0.21622495 -0.42963961 7
4.1332631 0.5625124 0.07281144 1
1.8575644 0.25280342 -0.43280584 3
19.295404 2.6259894 1.0205512 9
2.1787605 0.29651627 -0.42741215 2
2.6169548 0.35615191 -0.41830575 1
4.0086651 0.54555535 0.49673945 4
3.3517003 0.45614639 -0.41533071 1
24.916855 3.3910351 3.9828215 10
4.4202132 0.60156459 -0.39028341 3
4.0965629 0.55751777 -0.21667086 3
20.823259 2.8339212 4.8517442 3
15.47695 2.1063204 -0.27264148 4
3.970063 0.54030186 1.0735815 9
1.5971965 0.21169303 -0.43171015 7
4.0360832 0.53494406 0.071066201 1
1.8545718 0.24580568 -0.43190601 3
24.194916 3.2068036 1.2790908 10
2.1661584 0.2871035 -0.42474082 2
24.171476 3.203697 2.133224 33
2.6181819 0.34701487 -0.41830575 1
24.161663 3.2023964 2.9926236 85
3.3335934 0.44183576 -0.41289333 1
24.816919 3.2892442 3.964988 16
4.4499373 0.58979648 -0.39272377 11
24.865088 3.2956283 4.8755512 6
4.1024442 0.5437395 -0.2168802 6
15.563502 2.0627925 -0.27403769 4
3.9815004 0.5277096 1.0761696 5
1.5978897 0.20639537 -0.43171015 7
24.554241 3.1716094 0.43215647 16
1.8205885 0.23516083 -0.4238078 3
24.70656 3.1912842 1.3055727 10
2.1846225 0.28218216 -0.42817539 2
24.496147 3.1641057 2.1609395 11
2.6193182 0.33833075 -0.41830575 1
24.684023 3.1883729 3.0559957 20
24.585585 3.175658 -3.0438087 4
24.721899 3.1932654 3.9480929 30
4.3234305 0.55844665 -0.38139352 7
24.718164 3.1927831 4.8446403 6
4.1299748 0.53345847 -0.21824093 1
17.521715 2.2632358 4.0788126 2
15.62182 2.0178311 -0.2749452 4
3.9851444 0.51475108 1.0766872 2
1.6062675 0.20177959 -0.43378073 7
18.46405 2.3194571 0.32482418 13
1.8407336 0.23123327 -0.42830682 3
24.608557 3.091331 1.2998158 10
2.1739063 0.27308649 -0.42588568 2
24.420061 3.0676522 2.1532698 11
2.6361632 0.33115527 -0.4208087 1
24.622126 3.0930355 3.0469773 30
3.3562198 0.42160887 -0.41533071 1
24.607456 3.0911927 3.9280694 20
4.2996545 0.54012334 -0.37912747 10
24.622023 3.0930226 4.8236513 6
4.1119952 0.51654953 -0.21719421 1
20.61931 2.5902014 4.7977562 3
15.505754 1.9478354 -0.2727811 4
4.0156689 0.50444901 1.0844518 7
1.5992916 0.19523506 -0.43171015 7
17.338623 2.1166291 0.30489355 8
1.8570046 0.22669563 -0.43190601 3
24.522053 2.9935532 1.2946869 10
2.1573074 0.26335537 -0.42245111 2
24.319868 2.9688714 2.1435084 11
2.6294599 0.32099384 -0.41955724 1
24.520456 2.9933584 3.0330842 20
24.398287 2.9784443 -3.0179725 4
24.525938 2.9940276 3.9133646 9
4.3529339 0.53138864 -0.38365957 10
24.541077 2.9958756 4.8057156 19
4.1335983 0.50461304 -0.21824093 1
20.620489 2.517266 4.7959566 3
15.583918 1.9024218 -0.27403769 4
4.0154877 0.4901945 1.0839342 7
1.5922897 0.18874171 -0.42963961 7
19.107304 2.2648802 0.33585411 4
1.861655 0.22067088 -0.43280584 3
2.1660118 0.25674775 -0.42397758 2
4.040175 0.47890124 0.35594407 3
2.5991778 0.30809298 -0.41455132 1
24.422335 2.894896 3.0196786 30
24.333626 2.8843811 -3.0087104 4
24.40481 2.8928187 3.8924024 19
4.4675393 0.52955878 -0.39359534 13
4.0103388 0.47536466 0.78498822 2
4.135335 0.490181 -0.21824093 1
20.605928 2.4425192 4.7905579 3
15.689754 1.8597815 -0.27578291 4
21.221577 2.5154948 5.7261124 20
1.6082925 0.18494804 -0.43378073 7
1.8430542 0.21194483 -0.42830682 3
2.1942005 0.25232545 -0.42932025 2
24.165819 2.7789853 2.1281688 11
2.6316366 0.30262908 -0.41955724 1
24.311993 2.7957947 3.0048106 15
24.229164 2.7862697 -2.9945736 4
24.328411 2.7976828 3.8786361 13
4.4693604 0.51396096 -0.39359534 15
24.35465 2.8007002 4.765264 6
4.1568623 0.47802475 -0.21928766 1
20.014174 2.3015606 4.6510882 3
15.648471 1.7995198 -0.2749452 4
19.99618 2.2994912 5.3932714 3
1.6070082 0.17911893 -0.43326309 7
4.1456919 0.46208343 0.07281144 1
1.8360357 0.20464659 -0.4265072 3
24.212627 2.6987662 1.276788 9
2.1970191 0.2448822 -0.42970186 2
24.104088 2.6866686 2.1218936 11
2.6326771 0.29344112 -0.41955724 1
24.217041 2.6992583 2.9918923 30
24.092751 2.6854048 -2.9765368 4
24.204529 2.6978638 3.8573611 19
4.4830079 0.49968106 -0.39464119 15
24.093065 2.6854398 4.7122188 6
4.134686 0.46085671 -0.2180316 1
20.452044 2.2796075 4.7509661 3
20.092403 2.2395215 5.4170828 3
1.6134465 0.17356704 -0.434816 9
4.1215887 0.44338125 0.072357677 2
1.8445582 0.19842896 -0.42830682 4
2.1862311 0.23518455 -0.42741215 2
24.074608 2.5898337 2.1184075 11
2.6337843 0.2833302 -0.41955724 2
24.138411 2.5966973 2.9809241 20
24.016041 2.5835335 -2.9658124 4
24.136148 2.5964541 3.8448462 19
4.4650841 0.48033288 -0.39289808 13
24.151999 2.5981593 4.7217593 12
4.1483402 0.44625905 -0.21865962 1
20.604027 2.2164848 4.7842588 3
15.903805 1.710857 -0.27920359 5
21.270603 2.288192 5.7323241 6
1.6140425 0.167934 -0.434816 7
4.1489677 0.43168178 0.07281144 1
1.8568693 0.19319905 -0.43100622 3
23.119299 2.4054611 1.2181717 8
2.1889915 0.22775491 -0.42779377 2
24.008198 2.497947 2.1117837 10
2.6347573 0.27413487 -0.41955724 1
24.024912 2.499686 2.9658124 25
3.4434128 0.3582719 -0.42508027 1
23.420065 2.4367542 3.7293975 9
4.4528618 0.46330059 -0.39167792 10
24.057428 2.5030692 4.7015338 6
4.1697378 0.43384281 -0.21970634 1
20.629082 2.1463649 4.7883081 7
15.889791 1.6532626 -0.27885455 5
4.0793004 0.4244332 1.0989456 5
1.5914969 0.1605359 -0.42860433 7
4.1144905 0.41503283 0.072183155 2
1.8574672 0.18736459 -0.43100622 4
2.1779764 0.21969466 -0.42550406 1
23.948526 2.4157121 2.1058571 10
2.6356056 0.26585618 -0.41955724 1
23.307796 2.3510809 2.8763602 4
23.799589 2.4006886 -2.9370511 4
23.92485 2.4133239 3.8085535 12
4.3888783 0.44271058 -0.38592562 5
23.942112 2.4150651 4.6774917 12
4.1909518 0.42274556 -0.22075306 1
4.0891423 0.41247591 0.94884354 2
15.894906 1.6033353 -0.27885455 5
1.6151208 0.15722565 -0.434816 7
16.967199 1.6516901 0.29756352 8
1.8503516 0.18012443 -0.42920661 3
23.182453 2.2567205 1.2206838 28
2.2002242 0.21418315 -0.42970186 2
23.221115 2.260484 2.0411875 29
2.6640425 0.25933406 -0.42393741 1
23.191389 2.2575903 2.8610046 9
3.4457133 0.33542663 -0.42508027 1
23.178154 2.2563019 3.6884117 30
4.2436538 0.41310298 -0.37302658 8
23.854649 2.3221562 4.6587925 6
4.1446934 0.40346959 -0.21824093 1
20.361626 1.9821241 4.7230725 7
15.900406 1.5478419 -0.27885455 5
4.4242773 0.43068597 1.1910852 1
1.6118129 0.15122594 -0.43378073 7
4.1770163 0.39190233 0.073230296 1
1.8509691 0.17366441 -0.42920661 3
2.2009583 0.20650163 -0.42970186 2
23.337967 2.1896498 2.0507746 9
2.6452641 0.24818797 -0.4208087 1
23.728806 2.2263198 2.9263268 29
23.736576 2.2270489 3.776015 18
4.2986293 0.40331247 -0.37773299 10
23.755102 2.2287872 4.6378036 6
4.1977782 0.39385027 -0.22096241 1
20.383942 1.912493 4.7266717 7
4.5373111 0.42570645 1.2211082 1
1.6161791 0.14594623 -0.434816 7
4.2221742 0.38127607 0.073998205 1
1.8593273 0.16790332 -0.43100622 3
22.986792 2.0757821 1.2095886 8
2.1821127 0.1970519 -0.42588568 2
23.039883 2.0805764 2.0239305 9
4.5308561 0.40915108 -0.72053713 1
22.977247 2.0749204 2.832731 19
3.32144 0.29993686 -0.40948099 1
23.002506 2.0772011 3.6580634 3
4.3476343 0.39260554 -0.38191646 10
23.686481 2.1389666 4.6229205 6
4.3005748 0.38835591 -0.22630067 6
20.458424 1.8474623 4.7424183 7
4.562736 0.41202995 -0.079966925 2
4.4829731 0.40482706 1.2060968 10
1.6128294 0.13996978 -0.43378073 7
4.5043802 0.3909137 0.078919783 32
1.8676679 0.16208598 -0.43280584 3
4.5685349 0.39648134 0.24032672 1
2.1984346 0.19079165 -0.42893863 2
4.524385 0.39264977 -0.71928567 4
4.2517166 0.36898622 -0.37337521 35
4.4093523 0.38266665 -0.23195297 45
20.524933 1.781261 4.7563653 3
4.4400926 0.38533446 1.1941911 9
1.6056074 0.13369785 -0.43171015 9
1.8759904 0.15621246 -0.43460545 4
4.4902759 0.37390229 0.23613983 54
2.1971307 0.1829536 -0.42855701 1
4.4773426 0.37282532 0.3930724 37
4.6025019 0.38324726 -0.73148757 4
4.4985309 0.37458968 0.55426174 9
4.4706082 0.37226456 0.71052533 4
4.2589355 0.35463873 -0.37389815 22
4.4940419 0.37421587 0.87657654 5
4.4007092 0.36644414 -0.23142959 5
4.2452536 0.35349944 0.983486 1
4.3490014 0.36213845 1.1693444 1
1.6176188 0.12901396 -0.434816 7
4.4711189 0.35659623 0.078291498 27
1.8765242 0.14966309 -0.43460545 3
4.4756265 0.35695571 0.23530246 42
2.205584 0.1759074 -0.43008348 2
4.4865608 0.35782781 0.39376965 51
4.6313791 0.36937788 -0.73586774 3
4.4839807 0.35762203 0.55231184 38
4.5888577 0.36598653 -0.56523001 5
4.5014172 0.35901266 0.71521837 33
4.3018551 0.34309652 -0.37755868 61
4.399426 0.3508783 0.85787725 26
4.5512819 0.36298966 -0.23927999 42
4.4892831 0.35804492 1.0397238 23
4.6365685 0.36979172 -0.081188597 57
1.6142067 0.1230729 -0.43378073 7
4.5959587 0.35041237 0.080455594 21
1.8653766 0.14222299 -0.43190601 3
4.5186663 0.34451929 0.23750056 9
2.1944392 0.16731189 -0.42779377 2
4.5692344 0.34837475 0.40091643 27
2.6531322 0.20228429 -0.42143446 1
4.5722928 0.34860799 0.56303638 39
4.5406232 0.34619337 -0.55913657 1
4.3982511 0.33533838 0.69863629 12
4.2493877 0.32398853 -0.37285227 17
4.5572295 0.3474595 0.88840669 34
4.5565042 0.34740418 -0.23948933 7
4.3816919 0.33407587 1.0145292 9
4.6458068 0.35421291 -0.081328213 59
4.5074506 0.34366417 1.2112731 2
1.6261663 0.11856218 -0.43688655 7
4.623023 0.33706 0.080909356 13
1.8774995 0.13688663 -0.43460545 3
4.6034465 0.33563271 0.24189679 30
2.2145624 0.16146155 -0.43160996 2
4.6731892 0.34071758 -0.74212509 3
4.5694642 0.3331551 0.56254888 27
4.5845327 0.33425373 0.728046 50
4.2484517 0.30975041 -0.37267795 22
4.5798955 0.33391562 0.89260447 11
4.5815349 0.33403516 -0.2407454 17
4.4838419 0.32691246 1.0379242 13
4.6509442 0.33909574 -0.081398025 55
1.6072981 0.11154757 -0.43171015 9
4.6481099 0.32258195 0.081328213 36
1.8896302 0.1311416 -0.43730485 3
4.6265073 0.32108271 0.24304818 43
2.2033613 0.15291476 -0.42932025 2
4.5595741 0.31643751 0.39987054 17
4.6861739 0.32522362 -0.74400234 3
4.4795041 0.3108806 0.55133688 10
4.593554 0.31879574 0.72929746 41
4.2435441 0.29450482 -0.37215501 35
4.5967016 0.31901416 0.89565742 5
4.5906429 0.31859371 -0.24116409 7
4.5180049 0.31355256 1.0455725 15
4.6680589 0.32396644 -0.081677265 58
4.5501571 0.31578395 1.2221435 14
1.6192437 0.10669851 -0.434816 7
1.8784094 0.12377597 -0.43460545 3
4.6535082 0.30663842 0.24440892 40
2.1980047 0.1448354 -0.42817539 2
4.6322217 0.30523577 0.40614575 30
2.6550744 0.17495357 -0.42143446 1
4.6390257 0.30568412 0.57083601 43
4.6044946 0.30340871 0.73086184 40
4.2544866 0.28034529 -0.37302658 42
4.6232538 0.30464488 0.90061843 1
4.2947793 0.28300035 -0.22556797 8
4.513238 0.29739547 1.0442228 15
4.6851244 0.30872175 -0.081956498 58
4.549304 0.29977199 1.2216259 28
1.6157502 0.10080506 -0.43378073 7
4.3887968 0.27381271 0.07675568 3
1.8554904 0.11576222 -0.42920661 4
4.6724906 0.29151207 0.24535096 39
2.2063346 0.13765104 -0.42970186 2
4.6571212 0.29055318 0.40823749 22
2.6517258 0.16543856 -0.4208087 1
4.6499705 0.29010707 0.57205468 47
3.4275455 0.21384118 -0.42166793 1
4.6350985 0.28917924 0.73555487 34
4.2633934 0.26598892 -0.37372383 33
4.5772624 0.28557089 0.89145964 4
4.5170064 0.28181159 -0.23718655 15
4.5764875 0.28552252 1.0586196 17
4.6881695 0.29249024 -0.081991404 31
4.5908127 0.28641629 1.2324963 48
1.6160922 0.095164426 -0.43378073 7
4.3557901 0.25649294 0.076162301 8
1.8753369 0.11043018 -0.43370563 3
4.5558453 0.26827329 0.23917532 12
2.2224805 0.13087192 -0.43275481 2
4.5109253 0.26562816 0.39533845 12
2.6798947 0.15780698 -0.42518887 1
4.6549182 0.27410728 0.57254219 36
3.4005277 0.20024183 -0.4182556 1
4.6459394 0.27357855 0.7371192 30
4.2662849 0.2512224 -0.37389815 15
4.3587275 0.25666592 0.8487184 8
4.6615167 0.27449581 -0.24472293 35
4.6319265 0.27275339 1.0712169 38
4.6831732 0.27577105 -0.081886694 4
4.634212 0.27288797 1.2438843 48
1.6395613 0.090804577 -0.43999237 7
16.396372 0.90808779 0.28663832 36
1.8796026 0.10409889 -0.43460545 3
16.733356 0.9267512 0.87830204 24
2.1876392 0.12115903 -0.42588568 1
4.7087698 0.26078796 0.41259527 1
2.6370373 0.14604825 -0.41830575 1
4.4497132 0.2464405 0.54719335 10
3.3893137 0.18771192 -0.41679317 1
4.5995297 0.25473785 0.72961032 3
4.2810612 0.23709999 -0.37511832 12
4.5026951 0.24937482 0.87657654 6
4.6624465 0.25822243 -0.24472293 11
4.6445251 0.25722986 1.0739163 35
16.134811 0.89360172 -0.28206578 5
4.4094553 0.2442109 1.1833206 11
1.6244342 0.084280126 -0.43585128 7
16.33354 0.8474291 0.28548646 12
1.8799545 0.09753722 -0.43460545 3
16.734495 0.86823177 0.87819737 4
2.2096157 0.11464096 -0.43008348 2
4.7255688 0.24517554 0.41398978 1
2.6651492 0.1382753 -0.42268592 1
4.634912 0.240472 0.56986105 3
3.4573507 0.17937689 -0.42508027 1
4.246048 0.22029668 -0.3719807 26
4.6211748 0.2397593 0.89947361 2
4.4064226 0.22861734 1.1822854 2
1.6131409 0.078049116 -0.43274546 7
4.3162928 0.20883657 0.075429298 1
1.8841764 0.091162711 -0.43550524 3
4.3469424 0.21031952 0.22808009 2
2.2060804 0.1067375 -0.42932025 2
4.6428132 0.22463474 0.40666869 6
4.313128 0.20868346 -0.68393147 2
3.4738181 0.16807486 -0.42703018 1
4.3308854 0.20954263 0.68674731 4
4.2567415 0.2059553 -0.37285227 17
22.70204 1.0984001 4.4179916 5
4.3409576 0.21002996 -0.22776608 45
4.2744331 0.20681128 0.98798501 2
4.3202872 0.20902985 -0.07549911 40
4.2894883 0.20753969 1.1507095 1
1.6249703 0.073221087 -0.43585128 7
1.8883618 0.085089497 -0.43640503 3
4.3396349 0.19554377 0.22766142 27
2.2240736 0.10021666 -0.43275481 2
4.3390059 0.19551542 0.37999904 22
2.6541884 0.11959761 -0.4208087 1
4.2993178 0.19372706 0.52842546 2
3.5298827 0.15905635 -0.43385485 1
4.3236632 0.19482407 0.68549585 9
4.3011889 0.19381139 -0.37668711 10
4.3167429 0.19451223 0.8399412 1
4.3136969 0.19437499 -0.22630067 32
4.3451791 0.19579357 1.0041815 9
4.3017325 0.19383587 1.1538153 1
1.6174952 0.067227542 -0.43378073 7
4.32161 0.17961797 0.07549911 100
1.8730708 0.077849962 -0.43280584 3
4.3023763 0.17881855 0.22567265 89
2.228333 0.092615642 -0.43351805 2
4.3038301 0.17887899 0.37686142 65
2.6980107 0.11213672 -0.42769182 1
4.2940178 0.17847115 0.52769428 49
3.451081 0.1434364 -0.42410532 1
4.3144484 0.17932032 0.68393147 32
4.3316994 0.18003732 -0.37930179 1
4.2977796 0.17862752 0.83612502 26
4.6815281 0.19457714 -0.2455603 16
4.3049479 0.17892544 0.99473357 16
4.3081732 0.17905951 1.1553682 14
1.6331637 0.062168904 -0.43792182 7
1.8733312 0.07131125 -0.43280584 3
4.6342793 0.17641102 0.24304818 12
2.2345283 0.085060783 -0.43466288 2
4.6548352 0.17719351 0.40754026 13
2.6865418 0.10226738 -0.42581463 1
4.3977647 0.16740772 0.54036868 21
3.4317243 0.13063389 -0.42166793 1
4.3387356 0.16516069 0.68768591 22
4.3183651 0.16438524 -0.37808162 10
4.3278046 0.16474459 0.84184927 8
4.3152828 0.16426791 0.99698305 15
15.584337 0.59324193 -0.27222264 4
4.3261461 0.16468146 1.1600269 10
1.6256479 0.056200732 -0.43585128 7
1.881359 0.065040991 -0.43460545 3
4.6707959 0.16147541 0.24493228 4
2.2308874 0.07712464 -0.43389964 2
2.6671405 0.092206471 -0.42268592 1
4.680037 0.16179487 0.57497954 1
3.459934 0.11961436 -0.42508027 1
4.6689768 0.16141251 0.73993504 6
4.2970095 0.14855312 -0.3761642 12
4.6697555 0.16143943 0.90825081 2
4.6807761 0.16182044 -0.24545564 9
4.6605511 0.16112122 1.0766157 11
15.59031 0.53897703 -0.27229244 4
4.664567 0.16126005 1.2506136 16
1.6161796 0.050225787 -0.43326309 7
1.9010526 0.059078746 -0.43910447 3
4.6992793 0.14603885 0.24639769 1
2.2232938 0.069092989 -0.4323732 2
4.3492789 0.13516192 0.3806963 10
2.6950881 0.083754875 -0.42706609 1
4.3531909 0.1352835 0.53476268 4
21.736427 0.67549992 3.4443741 10
4.3452959 0.13503815 -0.38034767 8
22.229013 0.69080794 4.3229685 5
4.6274123 0.14380544 -0.2426295 12
18.53721 0.5760783 4.2817183 6
15.220332 0.47300014 -0.26580015 4
4.5917263 0.14269644 1.2309433 3
1.6279317 0.044903558 -0.43636891 7
4.6355305 0.12786274 0.080944262 2
1.8817673 0.051905151 -0.43460545 3
15.2293 0.42007273 0.79843736 3
2.2313716 0.061548356 -0.43389964 2
4.3656573 0.12041877 0.38209078 3
2.6677194 0.073584221 -0.42268592 1
4.3834019 0.12090822 0.53841877 9
3.5321209 0.097427174 -0.43385485 1
21.639923 0.5968982 3.4287305 2
4.3935399 0.12118787 -0.38453114 35
22.125315 0.61028683 4.302361 5
4.4621768 0.12308109 -0.23394172 8
18.529369 0.51109916 4.279469 3
15.113949 0.41689098 -0.2639153 4
1.6338725 0.039360318 -0.43792182 7
4.5859709 0.11047696 0.080071643 8
1.8799888 0.045289312 -0.43415552 3
15.108876 0.36397588 0.79205239 21
2.223722 0.053569913 -0.4323732 2
15.111874 0.36404809 1.3225012 25
2.675859 0.064461984 -0.42393741 1
15.102171 0.36381435 1.8548514 13
15.030728 0.36209327 -1.8460768 3
15.101324 0.36379394 2.3925087 7
4.4118624 0.10628266 -0.38609993 15
4.3473473 0.10472848 0.84528387 2
4.4486027 0.10716774 -0.23320901 3
15.090563 0.36353472 3.4849417 4
4.3860593 0.10566105 -0.076581158 4
15.170294 0.36545545 4.0660472 2
1.6455885 0.0338955 -0.44102764 7
4.3824029 0.090267844 0.076511353 8
1.8762388 0.038646385 -0.43325573 4
15.036172 0.30971202 0.78817952 31
2.2258582 0.045847777 -0.43275481 2
15.063253 0.31026983 1.3181435 53
2.6879175 0.055365182 -0.42581463 1
15.043809 0.30986932 1.8475392 13
3.4334815 0.070722155 -0.42166793 1
15.047203 0.30993924 2.3837483 24
4.4241586 0.091127917 -0.38714582 10
4.4576054 0.09181685 0.86665446 1
4.4289813 0.091227256 -0.2321623 10
15.041083 0.3098132 3.4732442 4
4.4523773 0.091709167 -0.077733018 2
1.6244496 0.027787663 -0.43533364 7
4.4226794 0.075653888 0.077209443 27
1.8919499 0.032363497 -0.43685496 4
15.009203 0.25674585 0.78671408 3
2.208338 0.037775598 -0.42932025 2
14.992529 0.25646064 1.3118682 9
2.6801941 0.045847118 -0.42456314 1
3.40592 0.058261313 -0.4182556 1
15.006717 0.25670332 2.3771782 33
4.4005442 0.07527525 -0.38505408 12
4.422565 0.075651936 0.85978532 13
4.4452486 0.076039948 -0.23299968 5
15.008949 0.25674152 3.465596 14
4.4126821 0.075482875 -0.07703492 12
15.017949 0.25689545 4.0246363 2
1.6148783 0.021985615 -0.43274546 7
14.93434 0.20332223 0.26070404 80
1.9076399 0.025971388 -0.44045416 5
4.4335041 0.060359541 0.23237164 19
2.2280872 0.030334091 -0.43313643 2
4.4485931 0.060564969 0.38923755 1
2.6803377 0.036491215 -0.42456314 1
4.5692592 0.062207762 0.56108648 6
3.5331368 0.04810157 -0.43385485 1
14.93839 0.20337735 2.3662276 11
4.4047647 0.05996827 -0.38540271 10
4.5032883 0.06130961 0.87543166 11
4.4275131 0.060277976 -0.23205763 15
14.962989 0.20371225 3.4547982 4
15.098301 0.20555444 -0.26356626 4
4.3964868 0.059855573 1.1781443 9
1.6419898 0.016622283 -0.43999237 9
1.896027 0.019193966 -0.43775475 4
4.4696369 0.045247275 0.23425575 3
2.22229 0.02249681 -0.43199158 2
4.4308472 0.044854596 0.38766876 31
2.6843994 0.02717486 -0.42518887 1
4.466229 0.045212775 0.54841202 4
3.4935834 0.035366438 -0.42898008 1
15.075302 0.15261114 2.3878157 3
4.4507699 0.04505628 -0.38941187 12
15.283153 0.15471525 2.970896 2
4.4496651 0.045045096 -0.23320901 17
4.4273109 0.044818796 1.0221776 24
4.4333725 0.044880163 1.1879795 9
1.6439676 0.011190305 -0.44051 7
4.4832134 0.030516736 0.078256592 2
1.8726959 0.012747234 -0.43235594 3
4.4737568 0.030452367 0.23446508 13
2.2380581 0.015234213 -0.4350445 2
4.5086727 0.030690037 0.39446688 6
2.6686721 0.018165356 -0.42268592 1
4.4405484 0.030226322 0.54524344 27
3.4936814 0.023781102 -0.42898008 1
4.470818 0.030432364 -0.39115497 14
4.4132934 0.030040801 0.85787725 16
4.4777513 0.030479556 -0.23467442 29
4.5172071 0.030748129 -0.078849971 23
4.4682693 0.030415015 1.1972969 4
1.6382002 0.0057184207 -0.4389571 7
4.5032864 0.015719499 0.078605637 37
1.8883177 0.0065914989 -0.43595514 3
4.4938054 0.015686404 0.23551181 27
2.2106109 0.0077165193 -0.42970186 2
4.4788642 0.015634248 0.39185223 10
2.6726685 0.0093294103 -0.42331165 1
3.4937413 0.012195507 -0.42898008 1
4.4524717 0.015542123 0.70520657 15
4.4828486 0.015648158 -0.39220083 14
4.4778275 0.015630631 -0.23467442 35
4.5210495 0.015781505 1.0437729 2
4.493288 0.015684599 -0.078431115 55
1.6420739 0.00028659595 -0.43999237 7
1.8922267 0.00033025586 -0.43685496 4
2.2282937 0.00038891062 -0.43313643 2
2.7121921 0.00047336685 -0.42956904 1
4.4684429 0.0007798904 0.54865581 41
3.5334642 0.00061670586 -0.43385485 1
4.4920063 0.00078400306 0.71146393 33
4.5028 0.00078588683 -0.39394397 22
4.4997787 0.00078535959 0.87466842 17
4.4758577 0.00078118453 -0.23456976 1
4.4937944 0.00078431511 1.0374743 9
4.4873166 0.00078318449 -0.078326397 40
4.4992824 0.00078527292 1.2055792 7
1.62854 -0.0059689377 -0.43636891 7
1.9039063 -0.0069782124 -0.43955436 4
2.222389 -0.0081455177 -0.43199158 2
2.6884696 -0.0098537998 -0.42581463 1
4.5021591 -0.016501348 0.55279934 23
3.5334406 -0.012950794 -0.43385485 1
4.4979024 -0.016485747 0.71240258 28
4.4948001 -0.016474377 -0.39324671 18
4.4918957 -0.016463732 0.87314194 27
7.4437346 -0.027282834 -0.39011222 2
4.4859695 -0.016442012 1.0356747 26
4.4876614 -0.016448211 1.2024733 22
1.6420339 -0.011463745 -0.43999237 7
1.8921806 -0.013210127 -0.43685496 3
4.5136957 -0.031512052 0.23655853 31
2.2223499 -0.01551518 -0.43199158 2
4.4927287 -0.031365674 0.3930724 26
2.7081754 -0.018906938 -0.42894331 1
4.4584088 -0.031126071 0.54743707 9
3.477797 -0.024279997 -0.42703018 1
4.4820204 -0.031290915 0.7098996 25
4.5186291 -0.031546496 -0.39533845 15
4.4957428 -0.031386718 0.87390518 8
4.5097013 -0.031484164 -0.23634918 10
4.5126953 -0.031505071 1.2092025 2
1.6458443 -0.017523158 -0.44102764 7
21.163576 -0.22532672 0.36943254 11
1.8882222 -0.020103732 -0.43595514 4
2.2419095 -0.02386941 -0.43580773 2
21.299427 -0.22677311 1.8635641 21
2.700187 -0.028748648 -0.42769182 1
21.292879 -0.22670338 2.6145849 12
3.434015 -0.036561653 -0.42166793 1
20.076591 -0.21375367 3.1799998 15
4.4885988 -0.047789712 -0.39272377 24
21.280472 -0.22657128 4.1367393 10
4.4576297 -0.047459986 -0.23362771 10
4.5052319 -0.047966801 1.0401736 15
4.5183449 -0.048106413 1.2107555 21
1.6303239 -0.022765094 -0.43688655 7
21.090731 -0.2945013 0.36817595 16
1.8881451 -0.026365193 -0.43595514 4
21.344624 -0.29804653 1.1187334 6
2.2221873 -0.031029604 -0.43199158 2
21.238792 -0.29656875 1.8583348 20
2.6882255 -0.03753715 -0.42581463 1
21.234447 -0.29650807 2.6075165 17
3.4338748 -0.047949053 -0.42166793 1
20.018492 -0.27952904 3.1709266 6
4.5422049 -0.063425265 -0.39743018 13
21.240341 -0.29659039 4.1291065 25
4.5153627 -0.063050449 -0.23666319 1
4.6088486 -0.06435585 -0.080455594 2
1.6360241 -0.028842535 -0.43843946 7
21.031528 -0.3707785 0.36716372 32
1.8997264 -0.033491515 -0.43865454 3
21.269501 -0.37497389 1.1148605 6
2.2220588 -0.039174121 -0.43199158 2
21.175808 -0.37332213 1.8529311 20
2.7078207 -0.047737934 -0.42894331 1
21.161766 -0.37307456 2.5987418 12
19.930429 -0.35136652 3.1571603 2
4.5140529 -0.079581179 -0.39498982 13
21.174335 -0.37329614 4.1165133 14
7.4705853 -0.13170381 -0.39157763 2
17.679491 -0.31168327 4.7379413 2
1.6378509 -0.034308087 -0.4389571 7
20.946215 -0.43876064 0.36569771 5
1.919088 -0.040199164 -0.44315359 3
21.20624 -0.4442074 1.1116157 6
2.2297678 -0.046706978 -0.43351805 2
21.080833 -0.4415805 1.8447385 19
2.7155473 -0.056882605 -0.43019477 1
4.5488338 -0.095284484 0.55864906 5
3.477119 -0.072835259 -0.42703018 1
19.860031 -0.41600835 3.14621 4
4.5595789 -0.095509566 -0.39899898 11
21.082691 -0.4416194 4.098959 14
7.4581265 -0.15622549 -0.39094961 2
15.256329 -0.31957453 -0.26635861 4
17.620417 -0.36909512 4.7224121 2
1.6280578 -0.040073197 -0.43636891 7
15.249058 -0.37534201 0.26625392 7
1.89555 -0.046657279 -0.43775475 3
20.214128 -0.49755281 1.0596985 5
2.2354696 -0.055024099 -0.43466288 2
14.856732 -0.36568528 1.3001894 3
2.6679258 -0.06566862 -0.42268592 1
21.02767 -0.51757741 2.5826552 17
3.5006425 -0.086165205 -0.42995504 1
19.805054 -0.4874838 3.1377625 6
4.6070013 -0.11339724 -0.40318248 11
21.051491 -0.51816374 4.0932345 4
7.5573368 -0.18601713 -0.39618319 2
21.145222 -0.5204708 4.8832374 3
15.215074 -0.37450552 -0.26566052 52
4.575171 -0.11261377 1.2262846 2
1.627916 -0.04547181 -0.43636891 7
15.205752 -0.4247351 0.2655209 54
1.8953849 -0.052942894 -0.43775475 4
20.088585 -0.56112498 1.0532088 5
2.2391999 -0.062546514 -0.43542612 1
20.188976 -0.5639292 1.7669955 5
2.6992872 -0.075397916 -0.42769182 1
20.934559 -0.58475518 2.5714431 29
19.744091 -0.55150241 3.1283765 9
4.6185498 -0.12900777 -0.40422833 11
20.957418 -0.58539373 4.0752983 14
4.6617818 -0.13021535 -0.24440892 1
21.073252 -0.58862919 4.8670411 7
15.167772 -0.42367426 -0.26485771 47
17.588444 -0.49128973 4.7146478 5
1.6431855 -0.051926259 -0.44051 7
15.156124 -0.47894827 0.26468319 47
1.887387 -0.059643265 -0.43595514 3
15.275401 -0.48271751 0.80094945 3
2.2507293 -0.071125232 -0.43771583 2
20.087204 -0.63477522 1.7582799 5
2.6989927 -0.08529079 -0.42769182 1
20.852911 -0.65897226 2.5616937 16
3.5317013 -0.1116052 -0.43385485 1
19.672832 -0.62168062 3.1174259 4
4.6240201 -0.14612353 -0.40475127 13
20.860943 -0.65922612 4.0569811 4
7.6037641 -0.24028634 -0.39869532 2
20.856697 -0.65909195 4.8175516 3
15.100161 -0.47717977 -0.26370585 76
17.586525 -0.55575132 4.7146478 5
1.6430043 -0.057374973 -0.44051 7
15.102492 -0.52739066 0.26377568 42
1.8871789 -0.065901741 -0.43595514 3
15.231799 -0.53190619 0.79875135 36
2.2387087 -0.07817743 -0.43542612 2
4.6533775 -0.16249953 0.40736595 1
2.7105401 -0.094654143 -0.42956904 1
20.842674 -0.72784227 2.5607185 8
3.5313118 -0.12331612 -0.43385485 1
4.6136432 -0.16111197 0.73117471 4
4.613554 -0.16110885 -0.4038797 16
4.6441922 -0.16217877 0.90328979 1
7.6109095 -0.26577881 -0.39911401 2
20.784286 -0.72580326 4.8013554 3
15.048533 -0.52550638 -0.26283324 76
17.327806 -0.60510033 4.645802 2
1.6312224 -0.06238012 -0.43740419 7
15.042711 -0.57525337 0.26276344 63
1.918107 -0.073350973 -0.44315359 3
15.184049 -0.58065832 0.79634392 38
2.2462845 -0.085900918 -0.43695259 2
2.7102113 -0.1036421 -0.42956904 1
20.748899 -0.79346561 2.5495067 20
3.5308836 -0.13502569 -0.43385485 1
19.04254 -0.72821218 3.0182467 12
4.5831304 -0.17526503 -0.40126503 35
20.73448 -0.79291421 4.0333204 14
7.5860367 -0.29010019 -0.39785793 2
4.6307192 -0.17708489 1.0698673 1
15.006743 -0.57387793 -0.26213515 57
17.416435 -0.66602772 4.6701307 5
1.6387272 -0.068110004 -0.43947473 7
14.986776 -0.62289155 0.261821 56
1.9022768 -0.07906384 -0.43955436 3
15.162084 -0.6301778 0.79529721 49
2.2459872 -0.09334939 -0.43695259 2
19.884809 -0.82646728 1.7411975 5
2.7098527 -0.11262891 -0.42956904 1
20.595417 -0.85600203 2.5309825 16
3.5304163 -0.14673379 -0.43385485 1
18.98081 -0.78889453 3.0088606 8
4.5626173 -0.18963489 -0.39952192 33
20.614042 -0.85677618 4.0104237 4
7.6169615 -0.31658182 -0.39953268 2
20.525898 -0.85311264 4.7428679 3
14.95281 -0.62147987 -0.26122761 61
17.392899 -0.72289664 4.6644368 5
1.6365237 -0.07431411 -0.4389571 7
14.926343 -0.67780125 0.26080877 56
1.9097461 -0.086721063 -0.44135398 3
15.195466 -0.69002211 0.79718131 42
2.2377672 -0.10161641 -0.43542612 2
19.881491 -0.9028132 1.7411975 5
2.7172935 -0.12339158 -0.43082052 1
20.498775 -0.93084395 2.5195267 4
3.4901659 -0.1584875 -0.42898008 1
18.914494 -0.85890216 2.9988487 12
4.5658364 -0.20733342 -0.39987054 22
20.557648 -0.93351734 4.0001197 4
7.6236706 -0.34618887 -0.39995137 2
20.466015 -0.92935628 4.7298207 7
14.910361 -0.67707556 -0.26052952 90
17.444031 -0.7921288 4.6789308 10
1.6517048 -0.080492876 -0.44309822 9
14.910031 -0.7266137 0.26056442 77
1.8977695 -0.0924844 -0.43865454 3
15.205064 -0.74099159 0.7978093 3
2.2256525 -0.10846318 -0.43313643 2
4.7024355 -0.22916478 0.41189805 1
2.6774087 -0.13047872 -0.42456314 1
4.7090058 -0.22948498 0.57887936 2
3.5292759 -0.17199294 -0.43385485 1
18.919434 -0.92200476 3.0001001 19
4.5989542 -0.22412179 -0.40283385 26
4.7179909 -0.22992285 0.9181729 4
7.5985422 -0.37030137 -0.39869532 2
20.445303 -0.99636525 4.7257719 3
14.930005 -0.72758704 -0.26091346 66
17.537786 -0.85467267 4.7048125 2
1.626334 -0.084947921 -0.43636891 7
14.927374 -0.77969807 0.26091346 63
1.8974351 -0.099108286 -0.43865454 3
19.626274 -1.0251347 1.0299716 4
2.2350631 -0.11674353 -0.4350445 2
19.675917 -1.0277276 1.7237663 5
2.720336 -0.14209068 -0.43144625 1
3.457288 -0.18058373 -0.42508027 1
18.801685 -0.98206407 2.9819539 14
4.6041126 -0.24048555 -0.40335679 15
7.6091704 -0.39744803 -0.39932334 2
14.96332 -0.78157562 -0.26154175 52
17.536625 -0.91598648 4.7053304 2
1.6299011 -0.090554908 -0.43740419 7
14.956653 -0.83096963 0.26147196 35
1.9204448 -0.10669709 -0.44405338 3
19.562943 -1.0868883 1.0268315 4
2.2385843 -0.12437245 -0.43580773 2
19.616699 -1.089875 1.7188855 5
2.7040713 -0.15023422 -0.42894331 1
3.5280235 -0.1960118 -0.43385485 1
18.672094 -1.0373942 2.9619303 14
4.6052794 -0.25586253 -0.40353107 13
7.7474036 -0.43043435 -0.40665039 4
20.301846 -1.1279407 4.6942787 3
15.008564 -0.83385378 -0.26237947 47
17.5007 -0.97231323 4.6965303 2
1.6372551 -0.097270876 -0.43947473 7
15.005252 -0.89147621 0.26237947 35
1.8966773 -0.11268339 -0.43865454 3
19.518749 -1.1596274 1.0247381 4
2.2302508 -0.13250132 -0.43428126 2
19.54077 -1.1609356 1.7126104 4
2.691643 -0.15991306 -0.42706609 1
20.075571 -1.1927087 2.4693167 4
3.5272448 -0.20955695 -0.43385485 1
18.667974 -1.109082 2.9619303 27
4.6142073 -0.27413443 -0.40440264 7
4.7583914 -0.28270054 0.92656851 1
7.7915497 -0.46290335 -0.40905783 14
20.320709 -1.2072725 4.6996775 3
15.047172 -0.89396673 -0.26311249 42
17.500694 -1.0397329 4.6975656 2
1.65042 -0.10354643 -0.44309822 7
15.064082 -0.94511217 0.26346153 63
1.8962932 -0.11897238 -0.43865454 3
4.776042 -0.29964623 0.2507939 1
2.2415557 -0.14063396 -0.43657097 2
4.7862706 -0.30028796 0.41956773 1
2.7226419 -0.17081705 -0.43207198 1
19.81197 -1.2429919 2.4373868 20
3.5265305 -0.22125256 -0.43385485 1
18.642508 -1.1696205 2.9584887 31
4.6192384 -0.28980845 -0.40492558 3
4.7515492 -0.29810956 0.92542362 1
7.8398056 -0.49186504 -0.41167462 26
19.808969 -1.2428038 4.582253 10
14.726797 -0.92395103 -0.25756261 4
17.535713 -1.1001809 4.7079186 2
1.6481209 -0.10917915 -0.44258058 7
15.128532 -1.0021839 0.26464829 68
1.9192001 -0.12713669 -0.44405338 3
2.2410512 -0.14845759 -0.43657097 2
19.421085 -1.2865425 1.7028489 4
2.718087 -0.18005866 -0.43144625 1
19.740164 -1.3076798 2.4290998 19
3.5257366 -0.23356111 -0.43385485 1
18.608746 -1.2327293 2.9537957 8
4.6082582 -0.30527234 -0.40405402 9
19.758078 -1.3088665 3.848999 4
7.8460121 -0.51975614 -0.41209331 19
19.755899 -1.3087221 4.5710053 6
14.739445 -0.97640896 -0.25784186 33
17.506706 -1.1597252 4.701189 5
1.6284778 -0.11330305 -0.43740419 7
15.176992 -1.0559552 0.26555583 32
1.8954394 -0.13187718 -0.43865454 3
19.306767 -1.3432885 1.0142708 4
2.2346709 -0.15547957 -0.43542612 2
19.456465 -1.3537039 1.7063352 4
2.7332399 -0.19016802 -0.4339492 1
19.864439 -1.3820891 2.4449427 24
3.5249429 -0.24525158 -0.43385485 1
18.419317 -1.2815433 2.9243858 21
4.59132 -0.31944591 -0.40265954 7
19.575403 -1.3619792 3.8142719 34
7.854208 -0.54646474 -0.41261667 7
19.570656 -1.3616488 4.5291643 35
14.686254 -1.0218115 -0.25696924 85
14.159084 -0.98513317 3.803087 1
1.6280724 -0.11898681 -0.43740419 7
15.175208 -1.1090721 0.26559073 25
1.9182903 -0.14019722 -0.44405338 3
19.30196 -1.4106735 1.0142708 4
2.2419467 -0.16385148 -0.43695259 2
4.8425374 -0.35391429 0.42479709 1
2.7167985 -0.19855577 -0.43144625 1
19.881271 -1.4530122 2.447624 20
18.38518 -1.3436711 2.9196928 17
4.6140223 -0.33721337 -0.40475127 1
19.552908 -1.429014 3.8108373 29
7.6749692 -0.56092107 -0.40330088 2
19.5755 -1.4306651 4.531414 19
14.646699 -1.0704463 -0.25634095 100
1.6488354 -0.12629203 -0.44309822 7
14.599008 -1.1182064 0.25557303 10
1.9022448 -0.14570184 -0.44045416 3
4.8451395 -0.37111193 0.25466678 1
2.2315736 -0.17092666 -0.4350445 2
4.8333263 -0.3702071 0.42409983 2
2.7160888 -0.20803796 -0.43144625 1
20.048277 -1.5355914 2.4688292 24
3.5231447 -0.26985416 -0.43385485 1
18.376438 -1.4075375 2.9190671 31
4.7041993 -0.36031663 -0.41276959 1
20.009775 -1.5326425 3.9008992 4
7.73669 -0.59258932 -0.40665039 2
20.027004 -1.533962 4.6371412 13
14.593026 -1.1177483 -0.25546834 87
17.46109 -1.3374267 4.6923895 2
1.6426075 -0.13158399 -0.44154528 7
15.316594 -1.2269629 0.26820859 36
1.8939545 -0.15171859 -0.43865454 3
19.140335 -1.5332705 1.0063157 4
2.2427051 -0.17965588 -0.43733421 2
19.159206 -1.5347822 1.6815829 4
2.7232223 -0.21814856 -0.43269774 1
19.935942 -1.5970039 2.4556673 32
3.5221813 -0.28215057 -0.43385485 1
18.361568 -1.470886 2.9175029 29
4.7327032 -0.37912157 -0.41538426 4
19.943638 -1.5976205 3.8890688 21
7.6788297 -0.61512625 -0.40371957 2
19.986563 -1.601059 4.6290426 16
14.413625 -1.154629 -0.2523967 37
20.071392 -1.6078545 5.3953419 15
1.653689 -0.13828285 -0.44465113 7
19.066542 -1.59436 0.33396924 4
1.9050652 -0.15930313 -0.44135398 3
19.087097 -1.596079 1.0038036 4
2.2283695 -0.1863381 -0.43466288 1
19.090197 -1.596338 1.6760049 4
2.7224443 -0.22765304 -0.43269774 1
19.862988 -1.6609595 2.4473801 32
3.4816113 -0.29113522 -0.42898008 1
18.383881 -1.5372753 2.9218829 36
4.7571621 -0.39779782 -0.41765031 4
19.879246 -1.6623191 3.8776205 21
4.8344693 -0.40426233 -0.25424808 1
19.887638 -1.6630207 4.6074476 13
14.272007 -1.1934371 -0.24998827 37
20.04063 -1.6758142 5.3886127 28
1.6512967 -0.14359856 -0.44413349 7
19.017321 -1.6537668 0.33320135 4
1.9161749 -0.16663264 -0.44405338 3
19.081699 -1.6593653 1.0038036 4
2.2355628 -0.19440696 -0.43618935 1
19.033192 -1.6551468 1.6714728 4
2.7374179 -0.23804882 -0.43520069 1
19.819796 -1.7235508 2.442749 32
3.5201793 -0.30611858 -0.43385485 1
4.7597866 -0.41391617 -0.41799894 6
19.830595 -1.72449 3.8692248 8
7.7739525 -0.67603129 -0.40895316 2
19.835419 -1.7249095 4.5966496 6
14.212191 -1.2359074 -0.24901094 55
17.52915 -1.5243539 4.7146478 2
1.6392415 -0.14831729 -0.44102764 7
19.039314 -1.7226623 0.33369002 4
1.9116999 -0.17296912 -0.44315359 3
4.8972468 -0.44309908 0.25770226 1
2.238781 -0.20256317 -0.43695259 2
4.9111023 -0.44435272 0.43142092 1
2.716897 -0.24582271 -0.43207198 1
19.756325 -1.7875369 2.4356806 32
3.5190892 -0.31840444 -0.43385485 1
4.9144158 -0.44465253 0.78154659 1
4.7206111 -0.4271172 -0.41468704 18
19.773619 -1.7891015 3.8593028 17
7.7874584 -0.70460314 -0.40979055 2
19.757467 -1.7876402 4.5800033 6
14.158001 -1.2810048 -0.24813831 4
4.9215722 -0.44530001 1.3241183 3
1.6425605 -0.15439999 -0.44206291 7
19.144676 -1.7995915 0.33564469 4
1.9072042 -0.17927639 -0.44225377 3
19.09749 -1.795156 1.0052691 4
2.2556522 -0.21203035 -0.44038716 2
19.072746 -1.7928302 1.6760049 4
2.7081554 -0.25456548 -0.43082052 1
19.676838 -1.8496146 2.4266624 27
3.5179563 -0.33068642 -0.43385485 1
18.577515 -1.7462785 2.9553599 61
4.7250423 -0.444152 -0.41520995 38
19.681248 -1.8500291 3.8425117 25
7.7571125 -0.72916532 -0.40832514 2
19.690962 -1.850942 4.5660567 9
14.077787 -1.3233061 -0.24681193 4
4.9353752 -0.46392319 1.3282593 2
1.6497024 -0.1608827 -0.44413349 7
19.454729 -1.8972689 0.34119454 13
1.8988086 -0.18517609 -0.44045416 3
19.26206 -1.8784795 1.0142708 4
2.2470822 -0.21914053 -0.43886068 2
19.213114 -1.8737061 1.6889039 4
2.7347751 -0.26670143 -0.43520069 1
19.624821 -1.9138567 2.4210563 23
19.504301 -1.9021034 -2.4061882 3
4.7234631 -0.46064278 -0.41520995 24
19.616051 -1.9130015 3.831063 17
4.907949 -0.47863424 -0.25843495 1
19.64365 -1.9156929 4.5566087 6
14.05716 -1.370886 -0.24653269 4
17.371866 -1.6941435 4.6768603 2
1.652975 -0.1670287 -0.44516876 7
19.428091 -1.9631566 0.3408455 18
1.9020283 -0.19219486 -0.44135398 3
19.553457 -1.9758245 1.0299716 14
2.2267706 -0.2250092 -0.4350445 2
19.577145 -1.9782181 1.7215003 15
2.741689 -0.27704033 -0.43645215 1
19.564695 -1.9769601 2.4144754 19
3.5155621 -0.35523811 -0.43385485 1
18.433189 -1.8626245 2.9343977 8
4.725791 -0.47752854 -0.41555858 16
19.574095 -1.9779098 3.824194 17
7.7915754 -0.78731787 -0.41041857 2
19.582554 -1.9787648 4.5440111 6
13.952811 -1.4098942 -0.24478745 4
19.699232 -1.9905547 5.3052726 18
1.6331681 -0.17078836 -0.43999237 7
19.375378 -2.0261776 0.34004268 31
1.9013458 -0.19883302 -0.44135398 4
19.47493 -2.0365884 1.0262034 14
2.2181611 -0.23196393 -0.43351805 2
19.484913 -2.0376325 1.7140049 14
2.7328465 -0.28578711 -0.43520069 1
19.496471 -2.038841 2.4069195 23
3.5143006 -0.36750755 -0.43385485 1
18.3696 -1.9209988 2.9253244 4
4.7637272 -0.4981662 -0.41904482 14
19.524115 -2.0417318 3.8157983 17
7.7808342 -0.81367981 -0.40999988 2
19.517384 -2.041028 4.5305142 6
13.951783 -1.4590061 -0.24485727 4
19.611467 -2.0508668 5.2835321 21
1.6287514 -0.17578861 -0.4389571 7
19.302942 -2.0833366 0.33889082 22
1.908426 -0.20597346 -0.44315359 3
19.452183 -2.0994439 1.0253661 14
2.2408028 -0.24184637 -0.43809745 2
19.386927 -2.092401 1.7059865 14
2.7397397 -0.29569584 -0.43645215 1
19.444208 -2.0985832 2.4013135 19
19.385 -2.0921929 -2.3940015 3
18.406338 -1.9865674 2.9322076 2
4.8254371 -0.52080196 -0.42462277 14
19.448919 -2.0990915 3.8024416 24
5.0338182 -0.54329216 -0.26534331 2
19.452383 -2.0994654 4.5170174 6
13.899153 -1.500114 -0.24401955 9
19.571907 -2.1123655 5.2747321 36
1.6492474 -0.18382695 -0.44465113 7
19.239906 -2.1445012 0.33791348 22
1.9038219 -0.2122021 -0.44225377 3
19.381218 -2.1602521 1.0220165 9
2.2340913 -0.2490143 -0.43695259 2
19.355743 -2.1574128 1.7038947 14
2.7269115 -0.30394459 -0.43457493 1
19.387444 -2.1609459 2.39522 11
3.5117176 -0.39141995 -0.43385485 1
18.485672 -2.0604336 2.9459739 2
4.7859674 -0.53344923 -0.42131087 12
19.382938 -2.1604438 3.7909932 24
7.8068748 -0.87016296 -0.41167462 2
19.394581 -2.1617415 4.5053196 6
13.822286 -1.5406473 -0.24276297 9
19.541374 -2.1781032 5.2685204 36
1.6697069 -0.19201049 -0.45034513 7
19.180651 -2.2057083 0.33700597 31
1.8991976 -0.21840113 -0.44135398 4
19.310064 -2.2205904 1.0186671 9
2.2624645 -0.26017556 -0.44267687 2
19.318405 -2.2215495 1.7012801 9
2.721909 -0.3130101 -0.4339492 1
19.30287 -2.219763 2.3857143 11
19.271317 -2.2161345 -2.3818145 3
18.556866 -2.133975 2.9584887 2
4.7761588 -0.54924166 -0.42061362 18
19.318716 -2.2215853 3.7799263 16
7.8037901 -0.89740872 -0.41167462 2
19.348196 -2.2249753 4.4963217 6
13.840663 -1.5916281 -0.24318182 4
19.470318 -2.2390189 5.2514386 21
1.6709449 -0.19806509 -0.45086277 7
19.127161 -2.2672338 0.33620316 27
1.9100349 -0.22640556 -0.44405338 3
19.24666 -2.2813988 1.0157362 9
2.240097 -0.26552939 -0.43847907 2
19.255133 -2.282403 1.6963993 14
2.7364929 -0.32436961 -0.43645215 1
19.261492 -2.2831569 2.3815708 11
3.5088995 -0.41592664 -0.43385485 1
18.665039 -2.2124565 2.9769478 2
4.7781696 -0.56637931 -0.42096224 48
19.250406 -2.2818427 3.768096 28
5.0992546 -0.60443902 -0.26911148 2
19.255163 -2.2824066 4.4765258 6
13.70396 -1.6243958 -0.24087812 4
5.0492849 -0.59851587 1.3624234 2
1.6395615 -0.20015106 -0.44258058 7
19.073477 -2.328413 0.33540034 22
1.9014953 -0.23212688 -0.44225377 3
19.187035 -2.3422756 1.0130148 9
2.2235661 -0.27144399 -0.43542612 1
19.201561 -2.3440492 1.6923902 14
2.7392657 -0.33439851 -0.43707791 1
19.188379 -2.3424399 2.3735273 11
3.5074263 -0.42817244 -0.43385485 1
18.708185 -2.2838197 2.9850824 2
4.7761636 -0.58305478 -0.42096224 52
19.203348 -2.3442674 3.7604637 24
7.8409505 -0.95719159 -0.41397741 2
19.225801 -2.3470082 4.4715772 9
13.686296 -1.6707679 -0.24066868 4
13.452075 -1.6421751 3.6312313 1
1.6350193 -0.20539139 -0.44154528 7
18.995789 -2.3862543 0.33417869 26
1.920009 -0.24119185 -0.44675279 3
19.131182 -2.4032621 1.0105027 4
2.2401366 -0.28140634 -0.43886068 2
19.139887 -2.4043558 1.6876838 9
2.7263219 -0.34248102 -0.43520069 1
19.140694 -2.4044571 2.3686526 11
3.5059102 -0.44041303 -0.43385485 1
19.139133 -2.4042611 3.0551651 29
4.764215 -0.59848148 -0.42009068 68
19.134663 -2.4036994 3.7486336 20
7.861342 -0.98754311 -0.41523346 2
19.163353 -2.4073036 4.4589796 6
13.668476 -1.7170364 -0.24045926 4
15.936167 -2.001904 4.3036432 13
1.6572837 -0.21406715 -0.44775695 7
18.937763 -2.4461432 0.33330604 30
1.91529 -0.24739318 -0.44585299 3
13.453616 -1.7377697 0.71093166 3
2.2469289 -0.29023015 -0.44038716 2
2.7035596 -0.34921199 -0.43175912 2
19.077059 -2.4641356 2.3618279 18
3.5043516 -0.45264825 -0.43385485 1
19.083605 -2.4649811 3.0476563 21
4.7700005 -0.61612898 -0.42078793 16
19.087214 -2.4654472 3.7410011 16
5.1718774 -0.66803837 -0.27329835 2
5.1138821 -0.66054726 1.190441 2
13.581088 -1.7542349 -0.23902816 9
5.1347051 -0.66323692 1.3872701 6
1.645036 -0.21832587 -0.44465113 7
18.931091 -2.5124965 0.33334097 4
1.9066875 -0.25305176 -0.44405338 3
2.2497945 -0.29858822 -0.4411504 2
2.7081988 -0.35942671 -0.43269774 2
19.009306 -2.522877 2.3545158 26
3.5027502 -0.46487796 -0.43385485 1
19.033762 -2.5261228 3.041086 25
4.7974472 -0.63670754 -0.42340261 12
19.020105 -2.5243101 3.7295525 16
7.8463364 -1.04135 -0.4148148 2
19.024376 -2.5248771 4.4306359 6
13.61651 -1.8071558 -0.23976116 4
15.854775 -2.104214 4.2855258 17
1.6481705 -0.22401316 -0.4456864 7
18.837902 -2.5603774 0.33184007 8
1.9058832 -0.25904053 -0.44405338 3
18.900051 -2.5688243 0.99961674 14
2.2371731 -0.30406824 -0.43886068 2
2.7501187 -0.37378585 -0.43958086 1
18.961946 -2.5772371 2.3496408 30
3.5012724 -0.47587988 -0.43385485 1
18.957224 -2.5765951 3.0301356 10
4.7875261 -0.65070266 -0.42270535 12
18.959557 -2.5769122 3.719249 12
7.8430262 -1.0659949 -0.4148148 2
18.979662 -2.5796447 4.4220877 6
13.701914 -1.8623129 -0.24136677 4
15.798316 -2.1472483 4.2720671 14
1.6320717 -0.22763012 -0.44154528 7
18.769434 -2.6178312 0.3307929 26
1.9049673 -0.26569173 -0.44405338 3
5.2063904 -0.72615147 0.27549648 1
2.2108204 -0.30835003 -0.43389964 1
5.2430286 -0.73126149 0.46314561 1
2.7370586 -0.38174605 -0.43770364 1
18.895819 -2.6354587 2.3425725 22
3.4995899 -0.48809868 -0.43385485 1
18.893333 -2.635112 3.0213752 19
4.8029852 -0.6698873 -0.42427415 12
5.1780257 -0.72219533 1.0162487 2
7.8550825 -1.0955727 -0.41565216 2
18.926149 -2.639689 4.4117403 6
13.766628 -1.9200745 -0.24262336 4
15.737152 -2.1949096 4.2575731 8
1.6236176 -0.23223159 -0.43947473 7
18.728508 -2.6788027 0.33023444 8
1.9020991 -0.27206376 -0.44360349 3
2.2330525 -0.31940112 -0.43847907 2
2.7200656 -0.38906026 -0.43520069 1
18.847202 -2.6957798 2.3376977 30
3.5489571 -0.5076195 -0.44019207 1
18.839045 -2.694613 3.0141792 27
4.8440084 -0.69285512 -0.42810902 2
18.859478 -2.6975358 3.7032211 12
5.2651153 -0.75308746 -0.2787413 2
18.866663 -2.6985633 4.4000425 6
13.807351 -1.9749126 -0.24346107 4
15.691146 -2.2443583 4.2472205 17
1.6438228 -0.24097995 -0.44516876 7
15.270434 -2.2386043 0.26939535 7
1.8934253 -0.27757102 -0.44180387 3
2.2396939 -0.32833305 -0.44000554 1
2.7186909 -0.39855272 -0.43520069 1
18.303444 -2.6832352 2.2714009 28
3.4960971 -0.51251835 -0.43385485 1
18.321358 -2.6858613 2.9328334 27
4.7942491 -0.70282388 -0.42392552 2
18.774191 -2.7522452 3.6883378 16
7.8551469 -1.1515433 -0.41607085 2
18.791573 -2.7547934 4.3847461 6
13.879516 -2.0346992 -0.24485727 4
15.652634 -2.2946336 4.2389383 17
1.6544342 -0.24843778 -0.44827458 7
15.236819 -2.288034 0.26894158 3
1.8962992 -0.28475741 -0.44270366 3
5.2775054 -0.79249555 0.27968335 1
2.2521245 -0.33818984 -0.44267687 2
5.2902517 -0.79440963 0.46802634 1
2.7329109 -0.41038701 -0.43770364 1
18.350895 -2.7556584 2.2784693 25
3.52177 -0.52884591 -0.43726721 1
18.595125 -2.7923331 2.9781992 31
4.8824 -0.73316461 -0.43194386 4
18.702341 -2.8084333 3.676126 8
7.9063826 -1.1872604 -0.41900167 2
5.2668552 -0.7908963 1.2295824 4
15.130033 -2.2719984 -0.26705673 4
5.284255 -0.79350913 1.431787 6
1.6363722 -0.25156939 -0.44361585 7
13.766149 -2.1163535 0.24311203 3
1.9029981 -0.29255942 -0.44450328 3
2.2373471 -0.34396091 -0.44000554 2
2.7275569 -0.41932383 -0.43707791 1
18.666862 -2.8697698 2.3189299 36
3.4924338 -0.53691304 -0.43385485 1
18.680933 -2.871933 2.99353 38
5.0078125 -0.76988137 -0.44327411 4
18.671078 -2.8704181 3.6719284 12
7.925879 -1.2184933 -0.42025772 2
18.658241 -2.8684444 4.3582015 12
15.319658 -2.3551838 -0.27054721 4
15.592317 -2.3971012 4.2270327 6
1.6507511 -0.25968155 -0.44775695 7
14.898484 -2.3436978 0.26325211 14
1.9173658 -0.30162302 -0.4481025 3
2.2438905 -0.35298899 -0.44153202 1
2.7143683 -0.4270004 -0.43520069 1
18.619473 -2.9290507 2.3142989 32
3.4905384 -0.54910064 -0.43385485 1
18.614204 -2.9282219 2.9844568 25
4.9086537 -0.77218592 -0.43473285 2
18.633793 -2.9313035 3.6665857 12
7.9255233 -1.2467732 -0.42046708 2
18.61154 -2.9278026 4.3496537 15
15.062443 -2.3694901 -0.26614919 9
15.524693 -2.4422076 4.2109857 17
1.6460662 -0.26454115 -0.44672167 7
13.656654 -2.1947763 0.24143659 6
1.9125069 -0.30736116 -0.44720268 3
5.3439994 -0.85884017 0.28366089 1
2.2446458 -0.36073956 -0.44191363 2
5.3093314 -0.85326862 0.4704667 1
2.7402422 -0.44038743 -0.43958086 1
18.572418 -2.9847944 2.3096678 25
3.4886982 -0.56067264 -0.43385485 1
18.555634 -2.9820967 2.976635 21
4.8549199 -0.7802397 -0.43020076 2
18.556128 -2.9821761 3.653229 15
7.9055696 -1.2705131 -0.41962969 2
18.569019 -2.9842479 4.3420053 21
14.920246 -2.3978496 -0.26377568 4
15.466918 -2.4857059 4.1975274 8
1.6336949 -0.26840621 -0.44361585 7
13.674562 -2.2466481 0.24189036 21
1.9037306 -0.31277144 -0.4454031 3
18.407619 -3.024261 0.97763568 9
2.2414358 -0.36825436 -0.44153202 2
2.7230945 -0.44738796 -0.43707791 1
18.48941 -3.0376985 2.3006494 29
3.4867201 -0.57284707 -0.43385485 1
18.51977 -3.0426865 2.9725678 40
