# .PCD v0.7 - Point Cloud Data file format
VERSION 0.7
FIELDS x y z intensity
SIZE 4 4 4 4
TYPE F F F F
COUNT 1 1 1 1
WIDTH 1316
HEIGHT 1
VIEWPOINT 0 0 0 1 0 0 0
POINTS 1316
DATA ascii
-2.2652087 0.49472371 -0.45069084 1
-65.862007 14.384325 5.8980036 63
-2.8021946 0.61200196 -0.45428568 1
-28.499159 6.2242432 3.5817399 6
-2.1798608 0.47608367 -0.27396229 3
-65.774376 14.365186 10.663198 36
-2.4039361 0.52502191 -0.21527469 100
-2.435178 0.53184521 -0.13063055 100
-2.6197155 0.57214832 0.61906528 5
-2.4186122 0.52822721 -0.043212157 100
-2.5800257 0.56348008 0.70761126 3
-1.6577175 0.36811426 -0.45500389 7
-2.4011364 0.53319854 0.04293292 100
-1.9176191 0.42582825 -0.45350131 3
-65.722679 14.594439 3.5282807 63
-2.2673011 0.50347894 -0.45145407 1
-2.7691867 0.61492813 -0.44927979 1
-2.1898129 0.48627186 -0.27542472 3
-2.4176488 0.53686529 -0.21666917 100
-2.4118593 0.53557968 -0.12947915 100
-2.6196046 0.58171177 0.61951518 11
-2.4206579 0.53753346 -0.043281969 100
-2.5007205 0.55531228 0.68638813 6
-1.6583068 0.3743239 -0.45552152 7
-2.4031618 0.54245746 0.043002728 100
-1.9199228 0.43337756 -0.45440114 3
-2.2693598 0.51225477 -0.45221731 1
-2.7554619 0.62198097 -0.44740257 1
-2.1668022 0.48910478 -0.27274358 3
-2.4118731 0.54442382 -0.21632056 100
-2.5470452 0.57493579 0.50755191 1
-2.400234 0.54179657 -0.1289558 100
-2.5510261 0.57583433 0.60376865 16
-2.422668 0.54686052 -0.043351777 100
-2.4290428 0.54829943 0.66723549 38
-1.6701708 0.3831338 -0.45914498 7
-2.4109991 0.55307829 0.043177254 100
-1.9259959 0.44181958 -0.45620075 3
-2.2522495 0.51666152 -0.44916436 1
-2.7609756 0.63336223 -0.44865406 1
-2.4630463 0.56501788 0.31027934 1
-2.161212 0.49577767 -0.27225611 3
-2.4182603 0.55474401 0.39296338 2
-2.413842 0.55373049 -0.21666917 100
-2.4742215 0.56758142 0.49343207 36
-2.4022214 0.55106473 -0.12916514 100
-2.4236398 0.55597806 0.5740751 54
-2.4109991 0.55307829 -0.043177254 100
-2.4101675 0.55288756 0.66257674 36
-1.6556532 0.38589185 -0.45552152 7
-2.4110012 0.56194478 0.043212157 100
-1.909259 0.4450011 -0.45260152 3
-2.4216797 0.56443369 0.13031653 2
-2.2427843 0.52273762 -0.44763792 1
-2.4429405 0.56938905 0.21945816 17
-2.7510526 0.64120239 -0.44740257 1
-2.4262602 0.56550127 0.30589205 29
-2.1517351 0.50151628 -0.27128115 3
-2.4041328 0.56034398 -0.21597193 100
-2.430161 0.56641048 0.48503646 50
-2.4041736 0.56035346 -0.12937449 100
-2.4254801 0.56531948 0.57497489 60
-2.3993163 0.55922133 -0.043002728 100
-2.4251556 0.56524384 0.66723549 47
-1.6430168 0.38899833 -0.4524157 7
-2.3954036 0.56713235 0.042967826 100
-1.9039013 0.45076498 -0.45170173 3
-2.2180207 0.52513546 -0.44305849 1
-2.7487977 0.65080142 -0.44740257 1
-2.4242713 0.57396704 0.30589205 69
-2.1480396 0.50856686 -0.27103743 6
-2.4277842 0.57479876 0.39515346 92
-2.394407 0.56689644 -0.21527469 100
-2.4262586 0.57443756 0.48465484 68
-2.4022028 0.56874216 -0.12937449 100
-2.4064252 0.56974179 0.57092577 61
-2.409025 0.57035732 -0.043212157 100
-2.4156482 0.57192546 0.66516495 48
-1.6492314 0.39624989 -0.45448625 7
-2.389621 0.5741384 0.042898014 100
-1.9099754 0.45889711 -0.45350131 3
-2.4352596 0.58510363 0.13125858 119
-2.2391744 0.53799152 -0.44763792 1
-2.4331965 0.58460796 0.21893522 114
-2.7466245 0.65991318 -0.44740257 1
-2.4223547 0.58200306 0.30589205 109
-2.1559923 0.51800591 -0.27225611 7
-2.4181819 0.58100051 0.39390197 77
-2.392514 0.57483345 -0.21527469 100
-2.3995245 0.57651776 0.4796938 64
-2.3964198 0.57577181 -0.12916514 100
-2.4045227 0.57771868 0.57092577 56
-2.4148977 0.58021146 -0.043351777 100
-2.4137385 0.57993293 0.66516495 48
-1.6590991 0.40475154 -0.45759207 7
-2.3895452 0.58295017 0.04293292 100
-1.9083619 0.46556136 -0.45350131 3
-2.4176795 0.58981377 0.13042121 100
-2.2677999 0.55324936 -0.45374379 1
-2.4233985 0.59120899 0.21823798 114
-2.7327895 0.66668761 -0.44552535 1
-2.4029517 0.5862208 0.30369839 100
-2.1599565 0.52694005 -0.27298734 6
-2.4199772 0.59037435 0.39452773 77
-2.3904929 0.58318138 -0.21527469 51
-2.4127557 0.58861262 0.48274675 68
-2.3885741 0.58271331 -0.12885113 100
-2.4024913 0.58610851 0.57092577 56
-2.4128578 0.58863747 -0.043351777 100
-2.4192066 0.59018636 0.66723549 48
-1.6576045 0.41082972 -0.45759207 7
-2.3893335 0.59218544 0.042967826 100
-1.9179918 0.47536555 -0.45620075 3
-2.4193788 0.59963202 0.13063055 100
-2.2543232 0.55872375 -0.45145407 1
-2.4289508 0.60200441 0.21893522 114
-2.7725098 0.68715394 -0.45240846 1
-2.418128 0.59932202 0.30589205 115
-2.1406696 0.53055519 -0.27079368 5
-2.4082103 0.59686399 0.39296338 67
-2.3361247 0.57899791 -0.21056828 100
-2.4105823 0.59745187 0.48274675 64
-2.3941767 0.59338582 -0.12926981 100
-2.4116762 0.59772295 0.57362521 69
-2.4106841 0.59747708 -0.043351777 100
-2.4264028 0.6013729 0.66982371 28
-1.6374254 0.41190052 -0.4524157 7
-2.4066446 0.6054005 0.043316871 100
-1.8974222 0.47730368 -0.45170173 3
-2.4075863 0.60563737 0.13010719 100
-2.2371275 0.56275785 -0.44840115 1
-2.4152415 0.60756308 0.21788935 100
-2.7279489 0.68622583 -0.44552535 1
-2.4160213 0.60775924 0.30589205 109
-2.1503551 0.54092991 -0.27225611 5
-2.4080279 0.60574847 0.39327624 82
-2.3282928 0.5856908 -0.21004534 100
-2.4084821 0.60586274 0.48274675 62
-2.3862801 0.60027772 -0.1289558 53
-2.3925662 0.60185903 0.56957608 23
-2.3872519 0.60052216 -0.042967826 100
-2.4224155 0.60936773 0.66930604 8
-1.6415931 0.41904715 -0.45396861 7
-2.3832035 0.60835695 0.04293292 100
-1.91085 0.48777997 -0.45530093 3
-2.409328 0.6150257 0.13031653 100
-2.2313452 0.5695923 -0.44763792 1
-2.4015231 0.61303341 0.21684349 39
-2.717881 0.6937896 -0.44427389 1
-2.4215786 0.61815298 0.306867 92
-2.1523006 0.54941475 -0.27274358 4
-2.4039848 0.61366177 0.39296338 74
-2.3223732 0.59282893 -0.20969671 100
-2.4073927 0.6145317 -0.13021186 66
-2.3810098 0.60779697 0.56732655 9
-2.3870785 0.60934615 -0.043002728 100
-1.6382502 0.42429048 -0.45345098 7
-2.373322 0.61466676 0.0427933 84
-1.9091357 0.49444711 -0.45530093 3
-2.2369454 0.5793466 -0.44916436 1
-2.4051547 0.6229111 0.21736643 15
-2.7345655 0.70822519 -0.44740257 1
-2.1580565 0.55891514 -0.27371854 5
-2.3357196 0.60492814 -0.21109121 32
-2.4117959 0.62463111 0.48427323 29
-2.3955655 0.62042761 -0.1296885 100
-2.4068813 0.62335825 0.66620022 45
-1.6479698 0.43295169 -0.4565568 7
-1.8847808 0.49516624 -0.44990212 3
-2.4069073 0.63233835 0.13042121 25
-2.2501001 0.5911423 -0.45221731 1
-2.7091501 0.71174306 -0.44364813 1
-2.394165 0.62899071 0.30394214 48
-2.1522524 0.56543595 -0.27323106 5
-2.4206581 0.63595098 0.39640492 40
-2.3759878 0.62421525 -0.21492606 75
-2.4152973 0.63454258 0.48541808 67
-2.3798633 0.62523347 -0.1289558 100
-2.3993258 0.6303466 0.57272536 69
-2.402107 0.63107729 -0.043351777 57
-2.4084277 0.63273782 0.66723549 48
-1.6464486 0.43870154 -0.4565568 7
-1.8943391 0.50475276 -0.45260152 3
-2.2404346 0.59697109 -0.45069084 1
-2.4180744 0.6443038 0.21893522 107
-2.7219193 0.72526425 -0.44615111 1
-2.4053819 0.64092183 0.30564833 93
-2.1272476 0.56681204 -0.2703062 5
-2.4184234 0.64439678 0.39640492 88
-2.3968971 0.63866097 -0.2170178 48
-2.4073765 0.64145327 0.48427323 68
-2.3776665 0.63353693 -0.1289558 100
-2.3763976 0.6331988 0.56777644 52
-2.382499 0.63482457 -0.043037634 100
-2.4099376 0.64213574 0.66827077 48
-1.6337173 0.44142261 -0.45345098 7
-2.3957124 0.64731002 0.043316871 32
-1.888803 0.51034558 -0.45170173 3
-2.4082184 0.65068913 0.13073522 100
-2.2231748 0.6006912 -0.44763792 1
-2.4061935 0.65014201 0.21806367 109
-2.7193711 0.73476106 -0.44615111 1
-2.4088793 0.65086764 0.30637953 115
-2.1290889 0.57526964 -0.27079368 5
-2.3875544 0.64510578 0.39171189 66
-2.3994367 0.64831638 0.48312837 59
-2.3966498 0.64756328 -0.13010719 100
-2.4005105 0.64860648 0.5740751 65
-2.3841295 0.64418042 -0.043107443 100
-2.4002216 0.64852846 0.66620022 46
-1.6136116 0.44173691 -0.44827458 7
-1.8983778 0.51969355 -0.45440114 3
-2.2249577 0.609097 -0.44840115 1
-2.3924942 0.65496123 0.2170178 100
-2.6864352 0.73542953 -0.44114518 1
-2.4143662 0.66094875 0.30735448 115
-2.1424868 0.58651996 -0.27274358 6
-2.3949285 0.65562761 0.39327624 69
-2.3079402 0.631814 -0.2093481 3
-2.39538 0.65575123 0.48274675 57
-2.3906364 0.65445262 -0.12989785 100
-2.3833098 0.65244693 0.57047588 58
-2.3935525 0.65525091 -0.043316871 100
-2.3887415 0.65393382 0.66361201 42
-1.6307538 0.45224804 -0.45345098 7
-2.3720968 0.65784067 0.042967826 100
-1.8928883 0.52494437 -0.45350131 3
-2.4038498 0.6666466 0.13073522 95
-2.2267094 0.61752117 -0.44916436 2
-2.4056687 0.66715097 0.21841229 109
-2.7106311 0.75172454 -0.44552535 1
-2.396858 0.66470754 0.30540457 92
-2.1405299 0.59362149 -0.27274358 5
-2.4003553 0.66567743 0.39452773 44
-2.319272 0.64319104 -0.21056828 4
-2.3749807 0.65864044 -0.12916514 100
-2.4111791 0.66867912 0.57767433 27
-2.3875127 0.66211581 -0.043247063 100
-1.6273853 0.45713091 -0.45293334 7
-2.3660519 0.66462165 0.042898014 100
-1.8798803 0.5280565 -0.45080191 3
-2.4054718 0.67569464 0.13094456 102
-2.2473307 0.63127297 -0.45374379 2
-2.7195342 0.76391441 -0.44740257 1
-2.1328163 0.59910595 -0.27201238 6
-2.3286352 0.65411133 -0.21161415 8
-65.015709 18.262848 13.126896 49
-2.365092 0.66435206 -0.12874645 100
-2.5627909 0.71988541 0.61456627 9
-2.3891542 0.67111105 -0.043316871 100
-2.5498803 0.71625882 0.70968181 4
-1.6219023 0.46231708 -0.45189804 7
-2.3750212 0.67699075 0.043107443 100
-1.881587 0.53633922 -0.45170173 4
-2.23545 0.63720649 -0.45183569 2
-2.6937842 0.76785296 -0.44364813 1
-2.1362274 0.60892349 -0.27274358 6
-29.018023 8.2714767 4.7790728 4
-2.3261063 0.66304779 -0.21161415 8
-65.0093 18.530655 13.139871 49
-2.3682861 0.67507094 -0.12906046 100
-2.5581338 0.7291863 0.61411637 4
-2.3788674 0.67808706 -0.043177254 100
-2.5582583 0.72922182 0.71278763 3
-1.6073678 0.46394286 -0.44827458 7
-2.3766055 0.68597198 0.043177254 100
-1.9022658 0.54906082 -0.45710054 3
-2.2125757 0.63862717 -0.44763792 2
-2.7139981 0.7833553 -0.44740257 1
-64.924194 18.739407 8.2971087 42
-2.1284747 0.61435264 -0.27201238 6
-64.932877 18.741913 10.704185 37
-2.3085809 0.66633767 -0.21021965 8
-64.883362 18.727619 13.126896 49
-2.3698723 0.68402845 -0.12926981 100
-2.5875309 0.7468524 0.62176472 12
-2.3593142 0.68098104 -0.042863112 39
-2.5428333 0.73395115 0.7091642 4
-1.6185526 0.47391123 -0.45189804 7
-2.370116 0.69396853 0.043107443 100
-1.8814414 0.55088496 -0.45260152 3
-64.706795 18.946112 3.5335145 63
-2.2214122 0.65042824 -0.4499276 2
-2.4627984 0.72110593 0.22451319 1
-2.6730545 0.78266883 -0.44114518 1
-64.867004 18.993021 8.2990589 42
-2.1261001 0.6225208 -0.27201238 6
-64.860435 18.991098 10.704185 37
-2.3021812 0.67407727 -0.20987102 8
-28.017303 8.2034502 5.6746597 8
-2.3787291 0.69649047 -0.12989785 100
-2.5939953 0.75952029 0.6240142 16
-2.372035 0.69453049 -0.043142349 57
-2.5270185 0.73990953 0.70554072 3
-1.6188242 0.47982493 -0.4524157 7
-2.3620498 0.7001195 0.043002728 100
-1.8683939 0.5537982 -0.44990212 3
-64.666588 19.167395 3.5347705 63
-2.2173607 0.65723318 -0.44954598 2
-2.6780202 0.79377413 -0.44239667 1
-2.1316369 0.63182431 -0.27298734 7
-28.054817 8.3155422 4.6345277 4
-2.3037536 0.68284029 -0.21021965 8
-2.3764062 0.70437479 -0.12989785 100
-2.5746467 0.76313394 0.61996508 7
-2.3678017 0.70182431 -0.043107443 100
-2.5301075 0.74993235 0.70709366 4
-1.6208401 0.48658368 -0.45345098 7
-2.3615069 0.70893526 0.043037634 100
-1.8776481 0.56367862 -0.45260152 3
-64.606941 19.395304 3.5351892 63
-2.2244549 0.66779166 -0.45145407 2
-64.796722 19.452276 5.918921 63
-2.6790168 0.80425328 -0.4430224 1
-2.1199121 0.63640743 -0.27176863 7
-28.006701 8.4077415 4.6313987 35
-2.3108974 0.6937421 -0.21109121 9
-27.998423 8.4052563 5.682292 8
-2.3567169 0.7074973 -0.1289558 100
-2.558902 0.76819426 0.61681581 5
-2.3864052 0.71640986 -0.043491397 100
-2.5459771 0.76431412 0.71227002 4
-1.634005 0.49644867 -0.45759207 7
-2.3687096 0.71966898 0.043212157 100
-1.8608519 0.56537002 -0.4490023 3
-64.607246 19.629181 3.538748 63
-2.2316206 0.67801815 -0.45336217 3
-2.7027962 0.82117224 -0.44740257 1
-33.88274 10.294364 4.3480544 8
-2.1215887 0.64458793 -0.27225611 8
-27.982445 8.5017166 4.6320243 35
-2.3314602 0.70835179 -0.21318294 9
-33.887569 10.295832 6.8843884 12
-2.3677347 0.71937281 -0.1296885 100
-2.5451531 0.77327663 0.61411637 4
-2.3687096 0.71966898 -0.043212157 100
-2.5341864 0.76994473 0.70968181 3
-1.6137109 0.49675062 -0.4524157 7
-2.3679671 0.72893423 0.043247063 100
-1.8773921 0.5779199 -0.45350131 3
-33.813614 10.408886 1.8541583 28
-2.2084804 0.67983925 -0.44916436 2
-33.807339 10.406954 3.0947261 29
-2.6884406 0.827586 -0.44552535 1
-33.833401 10.414977 4.3465919 24
-2.1230066 0.65352768 -0.27274358 8
-27.947321 8.6030579 4.6313987 35
-2.3193274 0.71396136 -0.21231139 11
-33.81208 10.408414 6.8767562 12
-2.3708088 0.72980899 -0.13000251 100
-2.5534768 0.78603989 0.61681581 4
-2.3622336 0.72716928 -0.043142349 100
-2.5368865 0.7809329 0.71123475 4
-1.6120547 0.50209916 -0.4524157 7
-2.3617184 0.73559338 0.043177254 100
-1.8754653 0.58414239 -0.45350131 3
-33.769375 10.517989 1.853635 28
-2.1930928 0.68307233 -0.44649306 2
-33.787857 10.523746 3.0961206 29
-2.6856813 0.83649659 -0.44552535 1
-33.813839 10.531838 4.3485417 8
-2.1170371 0.65938359 -0.27225611 7
-27.943157 8.7033243 4.6354661 35
-2.3226538 0.72342604 -0.21283433 14
-33.859852 10.54617 6.8935475 12
-2.3702824 0.73826081 -0.13010719 100
-2.5582983 0.79682124 0.61861539 4
-2.3674462 0.73737735 -0.043281969 100
-2.5158384 0.7835964 0.70605838 4
-1.6010801 0.50481862 -0.44982749 7
-2.3610435 0.74443418 0.043212157 100
-1.8511124 0.58365345 -0.4481025 3
-33.751503 10.641808 1.8546816 28
-2.1925676 0.69131386 -0.44687468 2
-33.76992 10.647614 3.0978637 29
-2.6676736 0.84111422 -0.4430224 1
-2.1222954 0.66915715 -0.27323106 7
-28.035063 8.8394213 4.6558027 4
-2.325815 0.73332661 -0.21335725 18
-29.005178 9.1452971 5.9116445 19
-2.3581669 0.74352717 -0.12958382 100
-2.5945308 0.81805247 0.62806332 1
-2.3763006 0.74924475 -0.043491397 100
-2.5259848 0.79643995 0.70968181 3
-1.6085998 0.51306033 -0.4524157 7
-2.360467 0.75286722 0.043247063 100
-1.8677326 0.59571034 -0.45260152 4
-2.4546349 0.78290188 0.13502677 1
-2.1921334 0.69917744 -0.4472563 2
-28.981386 9.2435675 2.6613877 20
-2.6611056 0.84875542 -0.44239667 1
-28.950891 9.2338409 3.7311518 26
-2.1049349 0.67136562 -0.27128115 8
-28.971046 9.2402697 4.8163042 23
-2.3499448 0.74951112 -0.21579762 31
-28.96908 9.2396421 5.9104996 28
-2.3442714 0.74770164 -0.1289558 100
-2.5156837 0.80237329 0.60961735 3
-2.3718979 0.75651306 -0.043456491 100
-2.5270109 0.80598611 0.71071708 3
-1.6102943 0.52042127 -0.45345098 7
-2.3518505 0.76008034 0.043142349 100
-1.8617228 0.60167897 -0.45170173 4
-28.910002 9.3432484 1.5922692 17
-2.1987731 0.71060818 -0.44916436 2
-28.921034 9.3468142 2.6591218 39
-2.680383 0.86625671 -0.44615111 1
-28.934113 9.3510408 3.7335892 32
-2.1098971 0.68188488 -0.27225611 8
-28.944752 9.3544788 4.8178687 9
-2.3641121 0.76404309 -0.21736643 41
-28.940861 9.3532219 5.9120259 28
-2.3546865 0.76099688 -0.1296885 100
-2.5107298 0.81142759 0.60916746 2
-2.3937118 0.77360928 -0.043910254 103
-2.5275738 0.81687135 0.71175236 3
-1.5883609 0.5191564 -0.44775695 7
-2.4633615 0.80515069 0.045236636 117
-1.8745358 0.61269277 -0.45530093 4
-28.894047 9.4440298 1.5931065 34
-2.2001369 0.71911556 -0.4499276 2
-28.903137 9.4470015 2.660342 39
-2.6774955 0.87514043 -0.44615111 1
-28.916151 9.4512548 3.7352953 39
-2.1076243 0.68887782 -0.27225611 8
-2.3767159 0.77683049 -0.21876091 55
-28.928347 9.4552412 5.9158421 28
-2.4508681 0.80106717 -0.13513143 99
-2.5006161 0.81732732 0.60736787 2
-2.4633615 0.80515069 -0.045236636 100
-2.5285237 0.82644892 0.71278763 3
-1.5958018 0.52745205 -0.45034513 7
-2.4454887 0.80829459 0.044957399 109
-1.8724937 0.61890554 -0.45530093 3
-28.86257 9.539794 1.5931065 17
-2.1772354 0.71963018 -0.44572982 2
-28.877325 9.5446711 2.6608648 39
-2.633316 0.87037617 -0.43926796 1
-28.901615 9.5526991 3.737489 32
-2.1053283 0.69586313 -0.27225611 8
-27.865509 9.2102413 4.6482935 4
-2.4270952 0.8022151 -0.22364163 60
-28.90056 9.552351 5.9166055 28
-2.4557836 0.81169736 -0.13555013 90
-2.5015924 0.82683825 0.60826766 1
-2.4606781 0.81331503 -0.045236636 100
-2.5000896 0.82634151 0.70554072 3
-1.5793861 0.52784222 -0.44620404 7
-2.4390016 0.81513196 0.044887591 98
-1.8556451 0.62017 -0.45170173 3
-28.849718 9.6417847 1.5941533 34
-2.2009051 0.73555839 -0.45107245 2
-28.866302 9.6473265 2.6627822 40
-2.6304152 0.87910378 -0.43926796 1
-28.866013 9.6472301 3.7370017 32
-2.1161883 0.70724541 -0.27396229 9
-28.940187 9.67202 4.8328862 4
-2.4357595 0.81404841 -0.2246875 64
-2.4473958 0.81793731 -0.13523611 24
-2.5025334 0.83636469 0.60916746 2
-2.4655538 0.82400584 -0.045376256 99
-2.5119934 0.83952636 0.70968181 3
-1.5993061 0.54133528 -0.4524157 7
-2.4472187 0.82833779 0.04509702 104
-1.8384832 0.62229222 -0.4481025 4
-28.82762 9.7576103 1.5949906 17
-2.1887665 0.74085659 -0.44916436 2
-28.878113 9.7747021 2.6673143 20
-2.6270204 0.88919735 -0.43926796 1
-62.03297 20.997002 8.0411835 39
-2.1002948 0.71091062 -0.27225611 8
-2.4477136 0.82850534 -0.226082 58
-28.682697 9.7085571 5.886076 9
-2.3874824 0.80811816 -0.13209595 6
-2.4993036 0.84596753 0.60916746 2
-2.4661598 0.83474904 -0.045446068 100
-2.52705 0.85535926 0.71485817 3
-1.590191 0.54413402 -0.45034513 7
-2.4558103 0.84033293 0.045306448 100
-1.8511598 0.63343275 -0.45170173 4
-2.1677225 0.74175465 -0.4453482 1
-2.650223 0.90685743 -0.44364813 1
-2.1054387 0.72044224 -0.27323106 10
-2.4449527 0.83661771 -0.226082 65
-27.766167 9.50107 5.7044258 35
-2.4433699 0.83607602 -0.13534078 46
-2.4983282 0.85488182 0.60961735 2
-2.4595942 0.84162778 -0.045376256 93
-2.5168886 0.86123282 0.71278763 4
-1.5699309 0.54363734 -0.44516876 7
-2.4564929 0.85063696 0.045376256 90
-1.8488257 0.64021331 -0.45170173 4
-2.1705549 0.75162202 -0.44649306 2
-2.6319485 0.91139382 -0.44114518 1
-2.0971565 0.72620553 -0.27249986 9
-2.4381046 0.84426939 -0.22573337 66
-27.755274 9.6111259 5.7093868 35
-2.4516127 0.84894705 -0.13596882 28
-2.5062268 0.86785889 0.61231679 2
-2.4413762 0.8454023 -0.04509702 93
-2.5027621 0.86665905 0.70968181 3
-1.5462388 0.54118216 -0.4389571 7
-2.4479964 0.8567965 0.045271542 97
-1.8650858 0.65277839 -0.45620075 5
-2.1661973 0.75816715 -0.44611144 2
-2.6214538 0.9175064 -0.43989372 1
-64.088081 22.430769 8.3370819 43
-2.104105 0.73643482 -0.27371854 11
-64.057816 22.420176 10.749238 37
-2.4258888 0.84905887 -0.22486182 77
-27.715837 9.7005186 5.7078605 35
-2.4487841 0.85707223 -0.13596882 67
-2.5106926 0.87874013 0.61411637 7
-2.4461091 0.8561359 -0.045236636 100
-2.5162849 0.88069743 0.71434057 2
-1.5660006 0.55485749 -0.44516876 7
-2.4390337 0.86418629 0.045166828 100
-1.8368497 0.65082341 -0.44990212 5
-63.928749 22.650915 3.5544488 63
-2.1743734 0.77041316 -0.44840115 1
-64.050819 22.694168 5.9450674 63
-2.6104636 0.9249264 -0.43864223 1
-63.975281 22.667402 8.3336697 43
-2.0975196 0.74318266 -0.27323106 12
-64.012215 22.680489 10.756121 37
-2.4376347 0.86369056 -0.22625631 84
-27.687639 9.8101463 5.7097683 35
-2.4379449 0.86380041 -0.13555013 37
-2.5201578 0.89292973 0.6172657 7
-2.4578826 0.87086469 -0.045515876 88
-2.4964964 0.8845461 0.70968181 2
-1.5714271 0.56265241 -0.44723931 7
-2.4342721 0.87159556 0.045131922 87
-1.8750445 0.67136312 -0.45979995 6
-63.838242 22.857399 3.5536115 63
-2.1792002 0.78026658 -0.4499276 2
-63.975212 22.906443 5.9450674 63
-2.6334188 0.94290042 -0.4430224 1
-63.933403 22.891472 8.3380566 43
-2.1006503 0.75214171 -0.27396229 12
-2.4497633 0.87714225 -0.22765081 76
-27.699316 9.9177904 5.7189274 8
-2.429426 0.86986041 -0.13523611 65
-2.5208523 0.90259582 0.61816549 4
-2.4530985 0.87833643 -0.04548097 86
-2.5153747 0.90063453 0.71589351 3
-1.5784363 0.57169759 -0.44982749 7
-2.4367015 0.88255471 0.045236636 80
-1.8615776 0.67424917 -0.45710054 6
-63.739014 23.085783 3.552774 63
-2.1504829 0.77888852 -0.44458497 2
-63.984493 23.174694 5.953783 63
-2.6225159 0.94985521 -0.44177094 1
-63.908798 23.147278 8.3458567 43
-2.0885472 0.75645584 -0.27274358 12
-63.915466 23.149694 10.766759 38
-2.4484053 0.88679373 -0.22782511 67
-2.431855 0.88079929 -0.13555013 54
-2.5211916 0.91315639 0.61906528 1
-2.4009783 0.86961603 -0.044573445 21
-2.5011585 0.90590054 0.71278763 3
-1.5565757 0.56962579 -0.44413349 7
-2.3736687 0.86863941 0.044119682 19
-1.8483511 0.67640048 -0.45440114 5
-63.737133 23.324478 3.5569608 63
-2.1460445 0.78534079 -0.44420335 2
-63.907291 23.386747 5.953783 63
-2.604511 0.9531157 -0.43926796 1
-63.880157 23.376818 8.3521938 43
-2.0822988 0.7620132 -0.27225611 12
-2.432354 0.89011508 -0.22660494 70
-63.876167 23.375359 13.221537 50
-2.4064133 0.88062227 -0.13429406 42
-2.5108294 0.91883314 0.6172657 1
-2.328599 0.85214621 -0.043281969 37
-2.5053976 0.91684526 0.71485817 3
-1.5474303 0.57210481 -0.44206291 7
-2.3088799 0.8536225 0.042967826 48
-1.8643762 0.68928379 -0.45890015 5
-63.685661 23.545406 3.5584264 63
-2.1379042 0.79041058 -0.44305849 2
-63.829388 23.598543 5.953783 63
-2.6161585 0.9672274 -0.44177094 1
-63.753876 23.570625 8.3458567 43
-2.087208 0.77166766 -0.27323106 12
-63.853168 23.607336 10.782402 38
-2.395751 0.88573992 -0.22346732 40
-2.4016066 0.88790476 -0.1341894 58
-2.5187356 0.93120891 0.61996508 4
-2.3445165 0.86679786 -0.043631017 51
-2.4932835 0.92179888 0.71227002 5
-1.5545733 0.58061272 -0.44465113 7
-2.3079097 0.861974 0.043002728 61
-1.8620802 0.69546247 -0.45890015 5
-63.607231 23.756466 3.5584264 63
-2.1518238 0.80367792 -0.44649306 2
-63.750778 23.81008 5.953783 63
-2.6166377 0.97727984 -0.44239667 2
-63.746029 23.808304 8.3551188 43
-2.0920763 0.78136301 -0.27420601 12
-63.774532 23.818951 10.782402 38
-2.353605 0.8790406 -0.21980679 31
-63.811691 23.832829 13.240618 50
-2.4192302 0.90355074 -0.13534078 55
-2.5393662 0.94841993 0.62581384 10
-2.3453758 0.87596709 -0.043700825 57
-2.4847836 0.92803407 0.71071708 12
-1.5685967 0.59272331 -0.44930986 7
-2.3045831 0.87082934 0.043002728 53
-1.8521043 0.69985193 -0.45710054 5
-63.55291 24.014645 3.5605197 63
-2.1450491 0.81054646 -0.44572982 2
-63.752075 24.089901 5.9624987 63
-2.6091702 0.98592329 -0.44177094 1
-2.0872037 0.78868854 -0.27396229 14
-2.312937 0.87398607 -0.21632056 12
-2.4269531 0.91706914 -0.13596882 86
-2.5138307 0.94989741 0.62041503 4
-2.3532188 0.88920724 -0.043910254 58
-2.5010805 0.94507957 0.71641111 4
-1.5539886 0.59309977 -0.4456864 7
-2.3091557 0.88131899 0.043142349 55
-1.846132 0.7046001 -0.45620075 5
-63.551296 24.255173 3.5649159 63
-2.1386809 0.81625515 -0.44496658 2
-2.5874312 0.98752648 -0.43864223 1
-2.0790129 0.79348212 -0.27323106 14
-2.39379 0.91362089 -0.22416458 39
-2.4164345 0.92226344 -0.13555013 107
-2.5106668 0.95822835 0.62041503 4
-2.3427842 0.89415377 -0.043770634 57
-2.4889085 0.94992399 0.7138229 2
-1.5574208 0.60033423 -0.44723931 7
-2.3043544 0.88825238 0.043107443 53
-1.8401487 0.70931643 -0.45530093 4
-2.139626 0.82475507 -0.44572982 2
-2.6062605 1.0046271 -0.44239667 2
-2.0800748 0.80179995 -0.27371854 15
-2.4074788 0.92800337 -0.22573337 60
-2.4189539 0.93242663 -0.13586414 70
-2.5092938 0.96724969 0.62086493 1
-2.354733 0.90767163 -0.044049874 57
-2.4154444 0.9310739 0.69363505 1
-1.5320182 0.59638506 -0.44051 7
-2.3013961 0.89588898 0.043107443 53
-1.8486824 0.71965629 -0.45800033 5
-2.1313908 0.82970917 -0.44458497 2
-2.6158004 1.0182804 -0.44458675 2
-2.0774045 0.80869335 -0.27371854 16
-2.371058 0.92300695 0.4945769 1
-2.4325993 0.94696385 -0.13680619 83
-2.3680568 0.92183864 0.58667237 1
-2.402024 0.93506145 -0.044992305 64
-2.3403335 0.91104645 0.67292953 16
-1.5421939 0.60748631 -0.44413349 7
-2.3108053 0.91025037 0.043351777 73
-1.8312734 0.72135782 -0.45440114 5
-2.1243896 0.83681935 -0.44382173 2
-2.3728054 0.93467283 0.22311871 1
-2.5675814 1.0113972 -0.43707791 2
-2.3659618 0.93197715 0.31222925 1
-2.0759883 0.81775355 -0.27396229 16
-2.35622 0.92813975 0.40109798 3
-2.330169 0.91787791 -0.21910954 27
-2.3399339 0.9217245 0.48885265 20
-2.3172812 0.91280138 -0.13052587 46
-2.3407664 0.92205238 0.5808236 20
-2.3312714 0.91831219 -0.043735731 79
-2.3546317 0.92751408 0.67810589 8
-1.543761 0.61402506 -0.44516876 7
-2.324497 0.92455977 0.043665919 97
-1.8216282 0.72454566 -0.45260152 6
-2.3606379 0.93893462 0.13314268 16
-2.1252515 0.84531069 -0.44458497 2
-2.3456254 0.93296355 0.22085266 31
-2.56972 1.0220963 -0.4380165 1
-2.3167448 0.92147636 0.3061358 35
-2.0621979 0.82023132 -0.27249986 18
-2.3329387 0.92791742 0.39765641 34
-2.3067477 0.91750008 -0.21719211 44
-2.3350403 0.92875338 0.48847103 13
-2.3198092 0.92269522 -0.13083988 75
-2.3467498 0.9334107 0.58307314 5
-2.3319294 0.92751604 -0.04380554 88
-2.3407724 0.93103331 0.67500007 7
-1.5522548 0.6240024 -0.44827458 7
-2.3322251 0.93754846 0.043875352 127
-1.8334253 0.73703223 -0.45620075 6
-2.122139 0.8530944 -0.44458497 2
-2.3458874 0.94304073 0.22120127 60
-2.5586252 1.0285608 -0.43676502 1
-2.3317702 0.93736559 0.30857319 35
-2.0591779 0.82778418 -0.27249986 20
-2.3313549 0.93719864 0.39796928 8
-2.3163097 0.93115056 -0.21841229 60
-2.3188696 0.93217957 0.4857997 9
-2.3386493 0.94013095 -0.13209595 115
-2.3179994 0.93182975 0.57677448 14
-2.3337595 0.93816531 0.6739648 20
-1.5394367 0.62478745 -0.44516876 7
-2.3439264 0.95129335 0.044154588 131
-1.9519525 0.79220891 -0.48634419 8
-2.3262656 0.94412559 0.13157259 41
-2.1011071 0.85274392 -0.44076878 2
-2.3039784 0.93508029 0.21754074 10
-2.5954685 1.0533829 -0.44364813 1
-2.3010583 0.93389511 0.3049171 13
-2.0637789 0.83759415 -0.27347481 20
-2.3264039 0.94418168 0.39765641 29
-2.311363 0.93807733 -0.21823798 97
-2.3139465 0.93912578 0.48541808 23
-2.3373694 0.94863212 -0.13220063 126
-2.3275363 0.94464129 0.57992381 27
-2.3252654 0.94371969 0.67241186 21
-1.5300964 0.62722635 -0.44309822 7
-1.8103348 0.74210334 -0.45170173 4
-2.3303478 0.95527023 0.13199128 57
-2.1072004 0.86379623 -0.44267687 2
-2.5625315 1.0504483 -0.43864223 1
-2.0700264 0.84855765 -0.27469349 21
-2.328577 0.95454431 0.39859501 57
-2.3191354 0.950674 -0.21928385 25
-2.32337 0.9524098 0.48808941 34
-2.3152092 0.94906443 0.57767433 31
-2.3128376 0.94809228 -0.043631017 94
-2.318382 0.95036513 0.67137659 21
-1.5244379 0.63081956 -0.44206291 7
-1.7826548 0.73767084 -0.4454031 3
-2.3197854 0.95993799 0.13157259 123
-2.1043243 0.87077922 -0.44267687 2
-2.3159702 0.9583593 0.21928385 102
-2.5261791 1.0453447 -0.43301061 1
-2.3056538 0.9540903 0.30637953 77
-2.0672011 0.85541749 -0.27469349 22
-2.3016703 0.95244193 0.39452773 47
-2.2938783 0.94921756 -0.21719211 6
-2.3002441 0.95185179 0.48389161 39
-2.3192518 0.95971721 0.57947391 22
-2.3223581 0.96100259 0.67344713 2
-1.5291333 0.63965034 -0.44413349 7
-2.3096836 0.96616155 0.043700825 137
-1.7654269 0.73849404 -0.44180387 3
-2.3123972 0.96729672 0.13136324 125
-2.1100211 0.88264096 -0.44458497 2
-2.3306539 0.97493362 0.22102696 114
-2.5221465 1.0550368 -0.43301061 1
-2.2909853 0.95833993 0.3049171 73
-2.0620699 0.86258256 -0.27444977 20
-2.3107529 0.96660882 0.39671782 33
-2.301245 0.96263164 -0.21823798 39
-2.2976568 0.96113068 -0.13052587 100
-2.3299763 0.9746502 -0.04408478 134
-2.3382552 0.97811335 0.67914116 7
-1.5305632 0.64622045 -0.44516876 7
-2.3046248 0.9730376 0.043665919 135
-1.7737399 0.74889225 -0.44450328 3
-2.294457 0.9687447 0.13052587 100
-2.0781441 0.87741506 -0.43847907 2
-2.3108885 0.97568232 0.21945816 25
-2.5331926 1.0695415 -0.43551356 1
-2.0537119 0.86709952 -0.27371854 23
-2.3017111 0.97180748 -0.21858661 77
-2.3331645 0.98508739 0.49228722 9
-2.2981369 0.97029841 -0.13073522 100
-2.3284824 0.98311061 0.58352304 15
-2.3119936 0.97614884 -0.04380554 135
-2.4115269 1.018173 0.70139962 3
-1.5299615 0.65258384 -0.4456864 7
-1.7709831 0.75538832 -0.44450328 3
-2.0929728 0.89272851 -0.44229525 2
-2.3054645 0.98336387 0.21928385 10
-2.5401576 1.083469 -0.43739077 1
-2.3262355 0.99222356 0.31052309 20
-2.0596497 0.87851506 -0.27493724 24
-2.3239353 0.99124241 0.40015936 23
-2.2963011 0.97945547 -0.21841229 100
-2.3295381 0.99363226 0.49228722 1
-2.2890537 0.9763642 -0.13042121 38
-2.4610929 1.0497451 0.6177156 11
-2.4610877 1.0497429 0.71692878 3
-1.511819 0.65077937 -0.44102764 7
-2.3014491 0.99068439 0.043735731 28
-1.7756282 0.76433897 -0.44630289 3
-2.3169901 0.99737424 0.13220063 57
-2.091804 0.90044039 -0.44267687 2
-2.3223212 0.99966908 0.22120127 25
-2.3338726 1.0046414 0.31198552 7
-2.056725 0.88534027 -0.27493724 24
-63.082317 27.154488 13.349761 51
-2.3151557 0.99658459 -0.13209595 19
-2.5148766 1.0825567 0.63211244 12
-2.316143 0.99700958 -0.044014968 91
-2.4682398 1.0624813 0.7200346 3
-1.51131 0.65682262 -0.44154528 7
-2.3163166 1.0066825 0.04408478 37
-1.7658004 0.76742542 -0.44450328 3
-2.0760443 0.90225893 -0.44000554 2
-2.0689347 0.89916903 -0.35729632 1
-62.884895 27.330082 8.4189777 44
-2.0572634 0.89409667 -0.27542472 24
-62.986557 27.374264 10.877514 39
-2.2932355 0.99665135 -0.21876091 29
-63.102383 27.424603 13.374184 51
-2.317158 1.0070481 -0.13240997 41
-2.5092952 1.090552 0.63166255 13
-2.4680595 1.0726306 0.72106987 3
-1.5250463 0.66881371 -0.44620404 7
-1.7418299 0.76388478 -0.43910447 3
-62.796509 27.5396 3.593596 63
-2.0838287 0.91386938 -0.44229525 3
-62.986431 27.62289 6.0172324 63
-2.0442328 0.89650452 -0.35354188 3
-2.0524693 0.90011656 -0.27518097 25
-62.935234 27.600439 10.884398 39
-62.964348 27.613207 13.364262 51
-2.5074499 1.0996498 0.63211244 11
-28.999058 12.717626 -0.55271769 12
-2.464489 1.0808091 0.72106987 3
-1.5225847 0.67439878 -0.44620404 7
-28.87546 12.789814 0.55125171 26
-1.7639633 0.78131264 -0.4454031 3
-28.836628 12.772614 1.6528741 19
-2.0750799 0.9191156 -0.4411504 6
-62.884766 27.853561 6.0172324 63
-2.0463517 0.90639096 -0.3544805 3
-2.0491562 0.90763324 -0.27518097 25
-62.858936 27.842123 10.888778 39
-60.758915 26.911959 12.917006 48
-2.4944935 1.1048865 0.62986296 12
-28.952251 12.823827 -0.55271769 12
-2.4711092 1.0945289 0.72417569 3
-1.4956477 0.66840911 -0.4389571 7
-28.847494 12.892025 0.55153096 26
-1.7578044 0.78556764 -0.44450328 3
-28.821465 12.880392 1.6544442 19
-2.0594738 0.92038453 -0.43847907 2
-62.857536 28.091208 6.0235076 63
-2.0533845 0.91766322 -0.27615592 27
-62.802334 28.066536 10.895035 39
-60.719524 27.135725 12.927691 48
-2.4961534 1.1155379 0.63121265 12
-2.4498286 1.0948352 0.71899933 3
-1.4985883 0.67600888 -0.44051 7
-28.816898 12.999221 0.5518102 26
-1.7550515 0.79169875 -0.44450328 3
-62.64304 28.258097 3.6015511 63
-2.0705652 0.93402612 -0.44153202 2
-2.0537877 0.92645782 -0.2766434 26
-62.765202 28.313204 10.905672 39
-62.82922 28.342081 13.397844 51
-2.4975734 1.1266482 0.63256234 10
-2.4495139 1.1049688 0.7200346 3
-1.49458 0.68017447 -0.43999237 7
-28.793655 13.103822 0.55219412 26
-1.7417743 0.79267114 -0.44180387 3
-28.787661 13.101093 1.6575844 20
-2.0603089 0.93763435 -0.44000554 2
-2.1215751 0.96551621 -0.36918533 1
-2.054318 0.93490785 -0.27713087 27
-62.724907 28.545732 10.915058 39
-62.731316 28.548649 13.397081 51
-2.5009184 1.1381531 0.63436198 13
-2.449353 1.1146859 0.72106987 3
-1.5078754 0.69290763 -0.44465113 7
-28.769054 13.220122 0.55264789 26
-1.7317744 0.79579496 -0.44000426 3
-28.775745 13.223196 1.6596779 20
-2.0604262 0.94681901 -0.44076878 4
-62.737343 28.829426 6.0405903 63
-2.0318651 0.93369442 -0.35416764 3
-2.0436623 0.93911552 -0.27615592 31
-62.655758 28.791935 10.921316 39
-62.697613 28.811169 13.412346 51
-2.4878764 1.1432433 0.63211244 11
-2.4628048 1.1317222 0.72624624 2
-1.5019425 0.69654131 -0.44361585 7
-28.762644 13.338973 0.55341583 26
-1.7466648 0.81003386 -0.44450328 4
-28.76565 13.340367 1.6617713 20
-2.0588899 0.95483142 -0.4411504 5
-62.63633 29.048244 6.0405903 63
-2.0214255 0.93745691 -0.35291615 3
-2.0349693 0.94373804 -0.27542472 31
-62.57996 29.022104 10.925696 39
-2.4714954 1.1461815 0.62896317 2
-28.907772 13.406278 -0.55620819 12
-2.4693546 1.1451887 0.72935206 1
-1.4923811 0.6987648 -0.44154528 7
-28.757025 13.464655 0.55425352 26
-1.7401544 0.81477755 -0.44360349 4
-28.716562 13.445709 1.6617713 20
-2.0464864 0.95820874 -0.4392423 2
-2.4294426 1.1375171 -0.424876 1
-62.27346 29.157768 8.4428644 44
-2.0350921 0.95287371 -0.2759122 32
-62.186932 29.117254 10.875637 39
-2.4672778 1.1552323 0.62896317 3
-28.85844 13.51214 -0.55620819 12
-2.4406469 1.1427631 0.72210515 3
-1.4777061 0.69819295 -0.43792182 7
-28.729736 13.57435 0.55463749 26
-1.7302519 0.81751686 -0.44180387 4
-5.9375887 2.8054175 0.34416124 2
-2.0395789 0.96366906 -0.43847907 2
-2.4790387 1.1713068 -0.43426207 1
-2.0209846 0.95488352 -0.27444977 19
-6.0029173 2.8362842 1.0515524 6
-6.0370827 2.8524268 1.2978828 5
-2.4843738 1.1738276 0.63436198 1
-2.4401364 1.1529262 0.72314042 3
-1.4788705 0.70475149 -0.4389571 7
-5.8506403 2.7881057 0.1131265 3
-1.7204946 0.81989676 -0.44000426 3
-5.9336619 2.8276696 0.34447527 2
-2.0381444 0.97127181 -0.43886068 2
-5.9731526 2.8464887 0.57888842 4
-2.4608748 1.1727228 -0.43175912 1
-5.9942846 2.856559 0.81530589 12
-2.019599 0.96243411 -0.27469349 7
-6.0077443 2.8629735 1.0540555 12
-6.0027781 2.8606067 1.2925402 9
-2.4769492 1.1803831 0.63346219 1
-5.9120169 2.8173547 -0.11431326 3
-2.4397876 1.1626737 0.72417569 2
-1.4868478 0.71493238 -0.44206291 7
-5.8246527 2.8007123 0.11281236 3
-1.703572 0.81914157 -0.43640503 3
-5.9219556 2.8474991 0.3443706 4
-2.0205867 0.97157425 -0.43580773 2
-5.923677 2.8483269 0.57505357 3
-2.4567664 1.1813058 -0.43175912 1
-5.9842768 2.8774655 0.81530589 1
-6.0315394 2.9001913 1.0599999 2
-6.0623546 2.9150083 -0.35253501 2
-2.4640326 1.1847997 0.63121265 2
-5.8877292 2.8310418 -0.11403403 15
-2.4496424 1.1778804 0.72831678 3
-1.5017241 0.72855037 -0.44723931 7
-5.8436275 2.8349926 0.11337084 4
-1.7007023 0.8250832 -0.43640503 3
-28.593138 13.87175 1.6655395 20
-2.0136504 0.97690761 -0.4350445 2
-5.9710608 2.896816 0.58063155 21
-2.4455187 1.1864253 -0.43050766 1
-5.9759822 2.8992035 0.81554967 28
-3.1665919 1.5362487 -0.43214869 1
-6.0036063 2.9126053 1.0568713 22
-6.0020914 2.9118702 1.2967379 4
-2.4668951 1.1967959 0.63301229 3
-2.4316111 1.1796782 0.72417569 2
-1.4696742 0.71934998 -0.43843946 7
-5.8336959 2.8553734 0.11337084 3
-1.7223164 0.84300876 -0.44270366 3
-5.90552 2.8905287 0.34457994 2
-2.0137548 0.9856568 -0.43580773 2
-5.9340696 2.9045026 0.57801688 1
-2.4484594 1.1984283 -0.43175912 1
-6.0799356 2.9758985 0.83114892 3
-3.1612101 1.5472927 -0.43214869 1
-6.1655049 3.0177815 1.0872195 10
-5.9125953 2.8939919 -0.57592517 2
-6.2140732 3.041554 1.3448218 20
-6.1243758 2.9976504 -0.3573499 2
-2.4767051 1.2122535 0.63661146 10
-5.7959781 2.8369119 -0.11263783 3
-2.4292138 1.1890082 0.7246933 2
-1.4620838 0.72165453 -0.43688655 7
-6.164896 3.042866 0.12000275 13
-1.7125216 0.84526545 -0.44090408 3
-6.0248528 2.9737434 0.35211632 14
-2.0104752 0.99232924 -0.43580773 2
-6.1852508 3.0529127 0.60346639 45
-2.4444718 1.2065411 -0.43175912 1
-6.2035389 3.0619395 0.84942931 22
-3.1560616 1.5577672 -0.43214869 1
-6.162549 3.0417075 1.0884711 4
-6.0030165 2.9629655 -0.58568656 2
-6.0642543 2.9931912 -0.35441908 19
-2.4691765 1.2187347 0.63571167 10
-6.198966 3.0596824 -0.12066594 6
-2.4148633 1.191927 0.72158748 2
-1.4751198 0.73450351 -0.44154528 7
-1.7025827 0.84776366 -0.43910447 3
-6.1199207 3.0472798 0.35829195 21
-2.0245733 1.0080918 -0.43962392 2
-2.4402454 1.2150666 -0.43175912 1
-6.0790858 3.026947 0.83383006 1
-6.1679354 3.0711877 -0.846017 2
-6.0723205 3.0235786 1.074392 1
-6.217361 3.0957983 -0.60764986 2
-5.9717889 2.973521 1.2967379 1
-5.9232535 2.9493539 -0.34677804 26
-2.4771183 1.2334267 0.638861 11
-6.1470766 3.0608017 -0.11986313 3
-2.4314401 1.2106822 0.72779918 2
-1.474144 0.74077255 -0.44206291 7
-1.7029467 0.85574824 -0.44000426 3
-5.8856349 2.9575922 0.34520796 4
-2.0138481 1.0119795 -0.43809745 2
-6.0101442 3.0201595 0.58847558 1
-2.4357755 1.2240024 -0.43175912 1
-5.9739428 3.0019677 0.82091188 4
-6.1459951 3.0884259 -0.84455454 2
-5.9270539 2.9784057 1.0506139 13
-6.0955968 3.0631003 -0.59684253 2
-5.9468164 2.9883366 1.293685 20
-5.8874192 2.9584889 -0.34531263 28
-2.4708397 1.2416224 0.6384111 7
-6.157258 3.0940857 -0.12028199 3
-2.4356172 1.2239227 0.73038733 2
-1.4853342 0.75290126 -0.44620404 7
-5.9912438 3.0369022 0.11724526 37
-1.6825672 0.85287672 -0.43550524 3
-5.8930898 2.987149 0.34625468 20
-2.0120544 1.0198905 -0.43847907 2
-5.9302578 3.0059891 0.58167744 49
-2.431488 1.2324973 -0.43175912 1
-5.9156208 2.9985697 0.81433094 27
-3.1392982 1.5912793 -0.43214869 1
-5.9042873 2.992825 1.0484238 6
-6.199019 3.1422215 1.3509277 6
-5.8182678 2.9492226 -0.34185848 19
-2.4612761 1.2475965 0.63706136 10
-2.4278839 1.2306703 0.72935206 2
-1.4586161 0.7457692 -0.4389571 7
-5.9147291 3.0241148 0.11595379 100
-1.7073416 0.87293893 -0.44270366 3
-5.8684001 3.0004277 0.34541732 16
-1.994498 1.0197577 -0.43542612 2
-6.1787281 3.1590939 0.60712689 67
-2.4412417 1.2481713 -0.43426207 1
-6.2179599 3.1791525 0.85747272 10
-5.8874431 3.010164 -0.81189358 2
-5.8726988 3.0026255 1.0446694 1
-5.9250507 3.0293922 -0.58220035 2
-5.8401556 2.9859867 1.2749857 5
-5.8097162 2.9704235 -0.34196314 21
-2.4586413 1.2570676 0.63751131 11
-5.9129486 3.0232046 -0.11591888 103
-2.416693 1.23562 0.72728151 2
-1.449136 0.74731439 -0.43688655 7
-1.704284 0.87889332 -0.44270366 3
-5.8472404 3.0154014 0.34478927 2
-1.9979057 1.030313 -0.43695259 1
-6.1534967 3.1733367 0.60573244 10
-2.4052677 1.2403882 -0.42863044 1
-6.1803603 3.1871903 0.85381663 27
-5.9368863 3.0616314 -0.82018065 2
-5.897295 3.0412145 1.0509267 27
-5.827714 3.0053318 -0.34363788 21
-2.4715583 1.2745739 0.64201033 9
-26.223824 13.523534 -0.51502049 48
-2.4192331 1.2475901 0.72935206 2
-1.4568019 0.75771689 -0.43999237 7
-28.470335 14.808089 0.56015241 27
-1.6873748 0.87764323 -0.43910447 3
-6.0209579 3.1316414 0.35567516 2
-1.9942971 1.0372808 -0.43695259 2
-59.136559 30.758312 5.8317652 63
-2.3939133 1.2451305 -0.42737895 2
-5.9402518 3.0896645 0.82213056 3
-3.1224625 1.6240661 -0.43214869 1
-6.1512709 3.1994202 1.0981699 30
-5.6571851 2.9424348 1.2394953 2
-5.749855 2.9906347 -0.33966035 21
-2.4567208 1.2777982 0.6393109 10
-2.4200051 1.2587014 0.730905 2
-1.4609911 0.7663871 -0.44206291 7
-28.453888 14.925958 0.56085056 27
-1.6808496 0.88171738 -0.43820465 3
-5.8967938 3.0932608 0.34897617 23
-1.9993571 1.0487958 -0.43886068 2
-2.3965497 1.2571498 -0.42863044 1
-5.9188833 3.1048481 -0.82066816 2
-6.192946 3.2486122 -0.61183333 2
-5.7128506 2.9967704 -0.33809027 19
-2.4591484 1.289987 0.64111048 10
-28.570763 14.987267 -0.56315428 12
-2.4138858 1.2662438 0.73038733 2
-1.4584417 0.77122772 -0.44206291 7
-28.448429 15.043602 0.56172317 13
-1.6710255 0.88364255 -0.43640503 3
-5.9836116 3.164149 0.35473311 27
-1.9889259 1.0517491 -0.43733421 2
-5.8968096 3.118248 0.58359486 9
-2.4098301 1.2743243 -0.43175912 1
-6.161252 3.2580857 0.85576653 1
-6.0629807 3.2061195 -0.84211719 2
-6.1869769 3.2716892 1.1084946 1
-6.1469131 3.2505033 -0.60834706 2
-6.1559515 3.2552829 1.3535991 5
-5.7770367 3.0549116 -0.3424865 19
-2.4496889 1.2954018 0.63976079 7
-2.413089 1.2760477 0.7314226 2
-1.4284669 0.76176935 -0.43378073 7
-28.415154 15.153164 0.56210709 27
-1.674809 0.89313805 -0.43820465 3
-5.9161358 3.1549425 0.3513836 2
-1.9696517 1.0503711 -0.43389964 2
-5.8876472 3.1397502 0.58376914 15
-2.3949091 1.2771513 -0.4298819 1
-5.8730898 3.1319871 0.8172558 18
-3.1055737 1.6561328 -0.43214869 1
-5.4793386 2.9220085 1.2070577 2
-5.7205172 3.0506237 -0.33976504 4
-2.4520304 1.3076128 0.64156044 7
-5.6392717 3.007297 -0.11155578 3
-2.405211 1.2826451 0.73038733 2
-1.4360077 0.77224088 -0.43688655 7
-5.5107403 2.9635072 0.10921716 3
-1.6716812 0.89897883 -0.43820465 3
-5.5198579 2.9684103 0.32846045 2
-1.9763477 1.0628191 -0.43618935 2
-6.103014 3.2820137 0.60625535 1
-2.3591206 1.2686627 -0.42425027 1
-5.8761082 3.1599905 0.8192057 43
-3.0997736 1.6669632 -0.43214869 1
-6.1291904 3.2960906 1.1022372 21
-5.8082161 3.1234803 -0.57697099 2
-5.3688188 2.8871858 1.1849239 2
-5.7819543 3.1093576 -0.34405658 16
-2.4474511 1.316164 0.64156044 10
-6.1430049 3.3035197 -0.12174799 37
-2.3939133 1.2873732 0.72831678 2
-1.4299068 0.77540696 -0.43585128 7
-6.094521 3.3049242 0.12101499 21
-1.6616806 0.90109277 -0.43640503 3
-6.1257219 3.3218439 0.36520031 61
-1.9726257 1.0697114 -0.43618935 2
-6.1283007 3.3232422 0.60991591 25
-2.3720427 1.2863065 -0.42737895 1
-3.093936 1.6777732 -0.43214869 1
-5.9549079 3.2292151 -0.59265906 2
-5.6270962 3.05145 -0.33547348 7
-2.4531202 1.330273 0.64425981 7
-6.1279206 3.3230362 -0.12167818 54
-2.3911033 1.2966425 0.72883445 1
-1.4390565 0.78688139 -0.43947473 7
-5.9583759 3.2580619 0.11853675 55
-1.6516858 0.90314788 -0.43460545 4
-1.9740474 1.0794164 -0.43733421 2
-2.3744709 1.2983694 -0.42863044 1
-5.3766742 2.939985 0.75242132 1
-6.1029692 3.337126 -0.85406035 5
-6.116663 3.3446138 -0.60991591 15
-5.903194 3.2278881 1.3078048 16
-5.7776303 3.1592293 -0.34510329 21
-2.4399128 1.3341532 0.64201033 7
-2.4052076 1.3151762 0.73452842 1
-1.4379928 0.79283255 -0.43999237 7
-5.8611598 3.2315311 0.11682641 9
-1.6621755 0.916435 -0.43820465 3
-1.9651097 1.0834568 -0.43618935 2
-2.3664646 1.3047425 -0.42800468 1
-5.2307854 2.8839762 0.7334097 1
-3.0821476 1.699332 -0.43214869 1
-5.8919435 3.2485037 1.0656316 20
-5.9344745 3.2719529 -0.3551518 16
-2.4318278 1.3407801 0.64111048 7
-2.4006021 1.3235641 0.73452842 2
-1.4149547 0.78658354 -0.43378073 7
-5.9180079 3.2898633 0.1181877 13
-1.65556 0.9203378 -0.43730485 4
-5.8531909 3.2538311 0.35096493 8
-1.9561679 1.087448 -0.4350445 2
-5.8580751 3.2565465 0.58638382 39
-5.8713202 3.2639096 0.8248117 34
-3.0761971 1.7100803 -0.43214869 1
-6.1464858 3.4168761 1.3669556 4
-5.8392253 3.2460678 -0.35012755 14
-2.4305391 1.3511543 0.64201033 6
-5.8638263 3.2597435 -0.11710565 26
-2.3892133 1.328181 0.73245788 2
-1.4088299 0.7896288 -0.43274546 7
-1.659137 0.92992234 -0.43910447 3
-5.8522506 3.2801018 0.35159296 12
-1.940372 1.0875504 -0.4323732 2
-2.0333421 1.1396588 -0.36918533 1
-3.070209 1.7208078 -0.43214869 1
-5.0936942 2.8549418 0.92484057 1
-5.8657899 3.2876904 -0.58830124 5
-5.0761366 2.8451011 1.1311157 1
-5.8383126 3.2722898 -0.35075557 21
-2.4309077 1.3624886 0.64336002 7
-5.8559008 3.2821476 -0.11717546 55
-2.3828773 1.3355683 0.73194027 1
-1.4161564 0.80024415 -0.43585128 7
-1.6457013 0.92995584 -0.43640503 3
-1.9468193 1.1001121 -0.43466288 2
-5.1795182 2.9268515 0.5204941 1
-1.9811975 1.1195385 -0.360425 1
-5.134625 2.9014828 0.72414762 1
-5.8777714 3.3214216 -0.82895529 2
-5.0871372 2.8746486 0.9254663 1
-5.828259 3.293443 -0.58568656 2
-5.8059883 3.2808583 -0.34949952 14
-2.4363165 1.3767182 0.64605945 7
-31.295527 17.684532 -0.62744892 13
-2.3916562 1.3514812 0.73608136 1
-1.4134949 0.80493593 -0.43585128 7
-1.6392215 0.93347937 -0.43550524 3
-5.1511793 2.9334166 0.31066623 1
-1.9619268 1.1172487 -0.43886068 2
-2.0873337 1.1886635 -0.38044861 1
-5.0801249 2.8929534 0.71781045 1
-3.0584249 1.7416661 -0.43214869 1
-61.315426 34.916992 11.175678 42
-61.369068 34.94754 13.727562 53
-5.5156498 3.1409695 -0.33264732 2
-2.419884 1.3780392 0.64291012 3
-2.3770888 1.3536689 0.73297554 1
-1.4275734 0.81923425 -0.44102764 7
-29.191664 16.752071 0.58748293 13
-1.6462582 0.9447298 -0.43820465 3
-1.9292636 1.1071366 -0.4323732 2
-5.0666776 2.9075882 0.51108128 1
-2.3061101 1.3233956 -0.42112157 1
-3.0181978 1.7320378 -0.42727393 1
-61.267834 35.159458 11.188193 42
-61.378849 35.223164 13.755802 53
-29.213264 16.764465 -1.7651871 10
-2.4136107 1.3850864 0.64246023 1
-29.214211 16.765009 -0.58793664 26
-2.4362578 1.3980829 0.75264579 1
-1.4114701 0.81622696 -0.43688655 7
-29.113447 16.835768 0.58702916 17
-1.6397424 0.94823271 -0.43730485 4
-1.9323797 1.1174594 -0.43389964 1
-6.0987654 3.526803 0.61636543 1
-2.3495901 1.3587245 -0.4298819 1
-6.1382928 3.5496612 0.87063462 3
-2.9780686 1.722162 -0.42239913 1
-4.8462434 2.8024929 0.88667053 1
-29.129847 16.845251 -1.7635124 10
-2.4191263 1.3989359 0.6451596 1
-29.10133 16.82876 -0.58678478 26
-2.4265912 1.4032528 0.75109285 2
-1.3948344 0.81409603 -0.43274546 7
-28.719215 16.76199 0.58043212 43
-1.6392889 0.95677203 -0.43820465 3
-5.0023608 2.919631 0.30354854 1
-1.9160093 1.1182801 -0.43122834 2
-4.9660735 2.898452 0.50306296 1
-2.3202322 1.354205 -0.42550173 1
-28.7446 16.776804 -1.7442528 10
-2.4067588 1.4047064 0.64336002 1
-2.410928 1.4071397 0.74798703 2
-1.3937924 0.81969631 -0.43326309 7
-28.858252 16.971684 0.58437639 87
-1.6260284 0.95627552 -0.43550524 4
-1.9072136 1.1216419 -0.43008348 2
-2.3191342 1.3638945 -0.42612749 1
-2.5204744 1.4823037 0.35902709 1
-2.691586 1.5829353 -0.38340095 1
-2.4894083 1.4640336 0.45741439 1
-2.4825931 1.4600254 0.55983359 10
-28.895401 16.99353 -1.7568134 10
-2.4289639 1.4284859 0.65055847 1
-28.9272 17.012232 -0.58577257 13
-2.4578702 1.4454859 0.76403379 1
-1.4027002 0.83120769 -0.43688655 7
-28.822458 17.079521 0.58479524 15
-1.6127894 0.95570165 -0.43280584 3
-4.9622684 2.9405253 0.3022925 1
-1.9271294 1.1419722 -0.43542612 2
-4.8541827 2.8764763 0.49365014 1
-2.3010032 1.3635212 -0.42362455 1
-2.4745586 1.4663661 0.35317737 24
-2.686322 1.5918522 -0.38340095 1
-2.4913373 1.4763088 0.45866585 34
-2.4929385 1.4772576 0.56326813 19
-28.821707 17.079075 -1.7557666 10
-2.4476845 1.4504411 0.65685707 1
-25.849722 15.317946 -0.52447975 30
-2.4995985 1.4812042 0.77852768 4
-1.4015949 0.83684498 -0.43740419 7
-27.836796 16.620411 0.56591171 13
-1.6096113 0.96104455 -0.43280584 3
-1.8997327 1.1342663 -0.43008348 1
-6.0899849 3.6361246 0.6205489 1
-2.3134296 1.3812708 -0.42675322 1
-2.4884307 1.4857581 0.35585847 36
-2.6708021 1.5946457 -0.38193852 1
-2.4694674 1.4744357 0.45553717 10
-2.482969 1.4824971 0.5621233 7
-4.9764977 2.9712989 -0.30375788 2
-2.4612663 1.469539 0.66180599 6
-25.779898 15.392307 -0.52409577 65
-2.5013077 1.4934465 0.78059822 4
-1.3836228 0.83300865 -0.43274546 7
-27.487879 16.549049 0.56004775 13
-1.5993999 0.96291709 -0.43100622 3
-27.435566 16.517555 1.6783094 20
-1.8854709 1.1351458 -0.42779377 2
-27.375502 16.481392 2.7956076 22
-2.3015821 1.3856652 -0.42550173 1
-2.4676626 1.4856536 0.35366485 17
-2.465739 1.4844956 0.45585003 9
-2.4792008 1.4926003 0.56250495 7
-2.4942627 1.5016682 0.67215377 2
-2.5388484 1.528511 0.79405683 1
-1.3874598 0.84159994 -0.434816 7
-27.326843 16.575811 0.55788362 13
-1.6161922 0.98034358 -0.43640503 3
-27.336243 16.581512 1.675588 20
-1.9219823 1.1658286 -0.43695259 2
-27.327511 16.576216 2.7963049 22
-2.3172419 1.4055836 -0.42925617 1
-2.4847867 1.5072123 0.35683343 12
-2.4760034 1.5018845 0.45866585 1
-2.5178807 1.5272864 0.57242697 1
-27.435286 16.64159 -1.681659 9
-2.5092633 1.5220592 0.67755258 1
-5.0369067 3.0552673 -0.10282958 2
-2.5205519 1.5289066 0.78991574 1
-1.390661 0.85119689 -0.43688655 7
