# .PCD v0.7 - Point Cloud Data file format
VERSION 0.7
FIELDS x y z intensity
SIZE 4 4 4 4
TYPE F F F F
COUNT 1 1 1 1
WIDTH 1321
HEIGHT 1
VIEWPOINT 0 0 0 1 0 0 0
POINTS 1321
DATA ascii
1.1254539 -1.9747322 -0.27908081 5
1.1483111 -2.0148375 0.36730811 3
2.319469 -4.0697622 0.91054052 24
1.1907002 -2.0892138 -0.12602498 1
2.4393411 -4.2800913 1.1373526 15
1.1565069 -2.029218 -0.040768821 1
1.4865049 -2.6082356 0.80440956 8
0.9027735 -1.5956467 -0.49123853 6
1.5902859 -2.8108208 0.056371272 9
1.058445 -1.870795 -0.49624202 6
2.8708289 -5.074173 0.30553731 16
1.1620368 -2.0538931 -0.45870483 16
2.9540906 -5.2213373 0.52485186 22
1.1585119 -2.047663 -0.3726269 42
1.1427047 -2.0197239 0.28493053 2
1.1309747 -1.998991 -0.28200567 21
9.2097321 -16.278147 2.9622431 2
2.3018382 -4.0684853 0.90863246 26
1.176263 -2.0790377 -0.12518761 1
2.4201252 -4.2775569 1.1346531 13
1.154065 -2.039803 -0.040908441 1
1.4783036 -2.6128926 0.80440956 9
0.90258986 -1.6090541 -0.49434438 6
1.577038 -2.8113985 0.056266557 1
1.0611148 -1.8916579 -0.50074106 6
2.8434179 -5.068984 0.30459526 1
1.1525801 -2.0547137 -0.45794159 17
2.9378576 -5.2373424 0.52537483 7
1.1508331 -2.0515995 0.28883034 1
1.1061594 -1.9719592 -0.27761838 7
9.0446692 -16.124004 2.9281404 19
1.1462909 -2.0435019 -0.20499031 1
2.2878714 -4.0786066 0.90901405 24
1.1178248 -1.9927552 -0.11974467 9
2.394897 -4.269402 1.1301541 9
1.1328846 -2.0196025 -0.040419772 6
1.4772229 -2.6334572 0.80906832 8
0.88249326 -1.5848764 -0.48606217 6
1.1323713 -2.0336344 0.040629201 2
1.0779197 -1.9358443 -0.51153868 9
2.819706 -5.0639319 0.30375788 5
1.1384785 -2.0446024 -0.45488864 86
2.9388366 -5.2778792 0.52851242 6
1.1580012 -2.0796633 -0.37700707 8
1.1366564 -2.0413299 0.28688043 1
1.1038218 -1.982362 -0.27859333 5
8.972827 -16.11437 2.9212573 2
1.1117564 -1.996612 -0.19993527 6
2.267406 -4.072052 0.9059611 24
1.1105871 -1.9945121 -0.11963999 45
2.3757844 -4.2666893 1.1274546 11
1.4623637 -2.6262703 0.8054449 8
0.87667847 -1.5881003 -0.48606217 5
1.101716 -1.9957551 0.039791487 32
1.0840024 -1.9636668 -0.51783735 10
1.1071304 -2.0055633 0.12005869 6
1.1404651 -2.065949 -0.45870483 88
1.0996166 -1.9919521 0.19906372 3
1.1291668 -2.0454824 0.28688043 2
1.0917518 -1.977705 -0.27737463 19
3.2783186 -5.938664 1.074392 13
2.2448757 -4.0665851 0.90290815 24
2.3591883 -4.2736626 1.1270047 9
1.4489936 -2.6248474 0.80337429 9
0.87975943 -1.6062479 -0.4907209 5
1.072804 -1.9587048 -0.51558781 8
2.7794876 -5.0747347 0.30323452 16
1.1298355 -2.0628319 -0.45717835 73
2.9507308 -5.3873873 0.53740233 24
1.1225779 -2.0495813 -0.37012395 100
1.0975842 -2.0039482 0.28054324 12
1.0880483 -1.9865377 -0.27810585 4
2.9615939 -5.4072213 0.97646391 6
2.2266624 -4.0653977 0.90100008 23
1.1225407 -2.0495133 -0.12246614 1
2.3403227 -4.2729163 1.1247553 13
1.1143039 -2.0344746 -0.040489584 2
1.4439933 -2.6364152 0.8054449 8
0.87570995 -1.6128571 -0.49175617 5
1.5257213 -2.810029 0.055812795 2
1.0684073 -1.9677615 -0.51693749 10
2.750386 -5.0655808 0.30208313 9
2.9414227 -5.4174266 0.53931975 28
1.0892848 -2.0062129 0.28029948 2
1.0788655 -1.9870232 -0.27761838 4
2.9370427 -5.4093599 0.97489959 32
1.195963 -2.2026899 -0.21928385 1
2.2070632 -4.0649047 0.89909196 22
1.1016792 -2.0290406 -0.12100073 1
2.3199968 -4.2729025 1.1225058 15
1.1106564 -2.0455747 -0.040629201 1
1.4324771 -2.6382947 0.80440956 8
0.87247163 -1.6190015 -0.49279147 4
1.5130912 -2.8077669 0.055673178 13
1.0196943 -1.8921953 -0.49624202 3
2.7278259 -5.0618887 0.30135044 3
1.1753752 -2.1810844 -0.48160189 3
3.2315726 -5.996666 0.59597099 6
1.0933356 -2.0288477 0.28298062 1
1.0669675 -1.9799178 -0.27615592 19
3.2367775 -6.0063243 1.0806493 25
1.114368 -2.0678763 -0.20551324 2
2.1924193 -4.0683618 0.89832872 20
1.0962468 -2.0342498 -0.1211054 6
2.2973168 -4.2630148 1.1180067 16
1.0909436 -2.0244088 -0.040140536 6
1.4260145 -2.646183 0.8054449 8
0.85742956 -1.6051486 -0.48761508 5
1.0891695 -2.0389767 0.040349964 1
1.016425 -1.9027956 -0.49804163 3
2.7036085 -5.0612826 0.30072239 7
1.2293494 -2.3013999 -0.50717032 1
3.2011232 -5.9926534 0.59440219 9
1.5394274 -2.8818808 -0.5174852 3
1.0840216 -2.0293396 0.28249314 1
1.0615742 -1.987317 -0.2766434 8
3.2035728 -5.9972391 1.0768949 5
1.0607828 -1.9858353 -0.19697198 25
2.1700931 -4.0625167 0.89527583 16
1.0661986 -1.9959739 -0.11859328 46
2.2770858 -4.2628121 1.1157572 15
1.061846 -1.9878259 -0.039337724 49
1.4126654 -2.6445761 0.80337429 8
0.85572028 -1.6148111 -0.48968562 5
1.057121 -1.9948699 0.039407533 15
1.0155843 -1.9164871 -0.50074106 3
2.6811988 -5.0596318 0.30009437 11
1.2272266 -2.3158724 -0.50946003 1
3.1364534 -5.9187326 0.58603519 10
1.5289373 -2.8852243 -0.51717234 3
1.0744976 -2.0276611 0.28176191 2
1.0419652 -1.9662699 -0.27323106 8
3.1568441 -5.9572115 1.0678216 15
2.1474166 -4.0523434 0.89145964 12
2.2565501 -4.2582865 1.112608 12
1.0655481 -2.0107725 -0.039721675 24
1.405697 -2.6526601 0.80440956 9
0.85277414 -1.6229186 -0.49123853 5
1.0427098 -1.9843863 0.039128296 2
1.0052626 -1.9131202 -0.49894145 4
1.0544459 -2.0067213 0.11880262 4
1.2154824 -2.3131905 -0.50793356 1
1.0509481 -2.0000646 0.19766922 3
1.5142624 -2.8818004 -0.51560801 3
1.051716 -2.0015259 0.27761838 12
1.051716 -2.0015259 -0.27761838 8
2.9393966 -5.5939803 1.0008677 18
1.0880187 -2.0706136 -0.20464168 1
2.1305187 -4.0546007 0.89031476 12
1.1148326 -2.1216435 -0.1256063 1
2.241672 -4.2661371 1.112608 11
1.3964288 -2.6575506 0.80440956 9
0.84264076 -1.6173192 -0.48865035 5
1.4681973 -2.8179789 0.055463746 13
0.98777324 -1.8958787 -0.49354261 3
2.6328909 -5.0534286 0.29862896 7
1.2128432 -2.3278658 -0.51022327 2
2.9781406 -5.7160826 0.56389767 12
1.5160595 -2.9098427 -0.51967531 3
1.0456401 -2.0069454 0.2778621 4
1.0438057 -2.0034244 -0.27737463 3
2.990133 -5.7391 1.0249586 9
1.0513251 -2.0178566 -0.19906372 8
2.1217954 -4.0724592 0.89260447 9
1.112957 -2.1361496 -0.12623432 1
2.2132604 -4.2480125 1.1058594 13
1.066268 -2.0465372 -0.040280156 1
1.388929 -2.6658354 0.8054449 8
0.84408325 -1.6339817 -0.49279147 5
1.4500918 -2.8070967 0.055149604 3
0.98741013 -1.9114347 -0.49669194 3
2.6069851 -5.046618 0.2976869 15
1.1966006 -2.3163869 -0.50678867 2
2.9362233 -5.6839595 0.5597142 27
1.5095195 -2.9221373 -0.52092677 3
2.9382246 -5.6878333 0.78605729 1
1.0185845 -1.9717823 -0.27249986 7
3.1314597 -6.0618992 1.0806493 13
1.0433606 -2.0197439 -0.1988894 9
2.1012595 -4.0676312 0.88993317 6
1.101827 -2.1329236 -0.12581564 1
2.1885803 -4.2366672 1.1009104 12
1.0481043 -2.0289268 -0.039861295 2
1.3849349 -2.6809657 0.80855072 8
0.8339712 -1.6283208 -0.49020326 6
1.4275223 -2.7872238 0.054660939 6
0.98162025 -1.9166042 -0.49714184 2
2.5829802 -5.0432439 0.29695421 1
1.1840328 -2.3118126 -0.50488061 1
1.4948077 -2.9185977 -0.51936245 2
1.0433675 -2.0371652 0.28103071 1
1.017125 -1.9859269 -0.27396229 21
9.076004 -17.720812 3.1534059 6
1.0254052 -2.0020936 -0.19679767 9
2.0888379 -4.0784359 0.89069641 5
1.0260904 -2.0034318 -0.11796524 9
2.1693363 -4.2356086 1.0986609 9
1.0309883 -2.012995 -0.039477345 13
1.3667617 -2.6685891 0.80337429 8
0.82128513 -1.6174419 -0.48606217 6
1.0212394 -2.0112324 0.03937263 8
0.97757095 -1.9252317 -0.49849153 2
2.5680728 -5.0575719 0.29726824 5
1.1795113 -2.3229337 -0.50640708 1
8.9681444 -17.661896 1.7330048 15
1.4792447 -2.9132299 -0.5174852 3
1.0326552 -2.0337148 0.28005576 1
1.0245665 -2.0177848 -0.2778621 7
9.0006762 -17.725964 3.1487129 31
1.0139 -1.9967784 -0.19592611 18
2.0639224 -4.0646963 0.88611698 4
1.0127611 -1.9945354 -0.11723254 34
2.1536558 -4.2414174 1.0982111 9
1.3539398 -2.6664538 0.80130374 8
0.81244129 -1.6132549 -0.48399162 5
1.0046705 -1.994962 0.038988676 47
0.97030479 -1.9267224 -0.49804163 2
1.0097347 -2.0050182 0.11765123 13
1.1806321 -2.3443668 -0.51022327 2
1.0054806 -1.9965706 0.19557749 7
1.4757955 -2.930469 -0.51967531 3
2.9241431 -5.8064356 0.79824418 9
1.0044767 -1.9945771 -0.27420601 6
8.9471769 -17.7663 3.1505902 27
1.0126498 -2.0108063 -0.19697198 7
2.0380695 -4.0469699 0.88077432 1
2.1369495 -4.2433147 1.0968614 9
1.3520414 -2.6847322 0.8054449 8
0.82320005 -1.6489211 -0.49382675 5
0.95922112 -1.9213799 -0.49579212 2
2.5202062 -5.0481305 0.29569817 16
1.1689339 -2.3414476 -0.50869679 2
0.99672526 -1.996503 0.19522886 1
1.0199784 -2.0430806 -0.36167648 2
0.99839485 -1.9998473 0.27444977 5
1.0134683 -2.0300403 -0.27859333 6
1.0076257 -2.0183372 0.35729632 15
1.026983 -2.0571113 -0.20115545 1
0.99793452 -1.9989253 0.43428126 1
1.1383303 -2.2801468 -0.13356136 1
2.1221244 -4.2507482 1.0968614 9
1.0557584 -2.1147501 -0.041257489 1
1.3409358 -2.6859784 0.80440956 8
0.82657295 -1.6709746 -0.49952075 5
1.3840343 -2.7979214 0.054486413 7
0.95735675 -1.9353631 -0.49849153 2
2.4999158 -5.0537534 0.2954888 18
1.1638261 -2.3527553 -0.51022327 2
2.9337506 -5.9307804 0.57888842 46
0.99759382 -2.0167053 -0.35635772 37
7.9751148 -16.122248 2.2085164 3
1.0016202 -2.0248446 -0.27737463 18
8.8005466 -17.790916 3.143707 33
1.0194364 -2.0608613 -0.20115545 1
0.99060142 -2.0025694 0.43428126 1
2.1073945 -4.2602444 1.0973113 9
0.97884297 -1.978799 -0.038534913 1
1.3362216 -2.7012646 0.80751544 8
0.80287457 -1.637424 -0.48865035 5
1.3777808 -2.8099174 0.054626033 2
0.94716346 -1.9316941 -0.49669194 3
2.4787426 -5.0552759 0.29507011 7
1.1512847 -2.3479896 -0.50831515 2
2.9139078 -5.9427743 0.57906276 4
0.99750549 -2.0343642 -0.35886067 7
0.99732482 -2.0339959 -0.19819216 2
0.98706239 -2.0130661 0.43580773 1
2.0882208 -4.2588258 1.0950618 11
1.0071446 -2.0540228 -0.039931107 1
1.3233823 -2.6989741 0.8054449 8
0.80588776 -1.657451 -0.49382675 6
1.3553391 -2.7874951 0.054102462 9
0.94586533 -1.9453398 -0.49939135 2
1.3615478 -2.8002648 0.16318351 1
1.1452091 -2.3553257 -0.50907838 2
1.3660691 -2.8095634 0.27332041 1
0.97779709 -2.0110133 -0.35416764 3
0.98099095 -2.0175819 -0.19627473 1
0.96836275 -1.9916097 0.4304651 1
0.9903754 -2.0368826 -0.11869795 3
2.0791996 -4.2762427 1.0977612 13
0.97584409 -2.0069964 -0.03895377 3
1.3110459 -2.6963985 0.80337429 8
0.79422653 -1.6480719 -0.49020326 5
0.96709615 -2.0067878 0.038883962 2
0.93737704 -1.9451187 -0.49849153 2
2.4442751 -5.072031 0.29507011 3
1.1403898 -2.3663833 -0.51060486 2
2.9140422 -6.0468283 0.58725542 4
0.97334415 -2.0197527 -0.35510623 2
1.3564571 -2.8147371 0.3836447 3
0.96261919 -1.9974977 -0.27225611 14
0.95231837 -1.9761229 -0.19191694 33
0.95202941 -1.9755232 0.4262673 1
0.95811427 -1.9881498 -0.11566246 66
2.0651059 -4.2852297 1.0982111 16
1.2974323 -2.6922569 0.80078614 8
0.79596221 -1.6665232 -0.49486202 6
0.94543409 -1.9794757 0.038290579 34
0.92554235 -1.9378281 -0.49579212 2
0.95719397 -2.0040977 0.11639517 9
1.134661 -2.3756642 -0.51174974 1
0.95829493 -2.0064027 0.19453162 5
0.95947713 -2.008878 -0.35260329 1
0.97275156 -2.0366709 0.27713087 1
0.96162951 -2.0133846 -0.27396229 10
1.0131124 -2.1211755 0.37231404 1
0.96087098 -2.0117965 -0.19505455 7
0.95274293 -1.9947785 0.42970186 1
0.95202929 -1.9932842 -0.11576714 26
2.0115008 -4.2115231 1.0775156 19
1.2905245 -2.7019989 0.80233902 7
0.79179311 -1.6727837 -0.49589729 5
0.94964057 -2.0062606 0.038744342 18
0.92294109 -1.9498539 -0.49804163 3
0.9467746 -2.0002058 0.11597648 13
1.1297213 -2.3867085 -0.51327622 2
0.95043302 -2.0079348 0.19435731 11
0.96513587 -2.0389969 -0.35729632 9
0.94100708 -1.9880211 0.27006248 9
0.96393776 -2.0364656 -0.2766434 20
0.94569796 -1.9979312 0.35010034 4
0.96662873 -2.0421507 -0.19766922 7
0.94997376 -2.0069644 0.43160996 4
0.96728235 -2.0435317 -0.1184886 31
1.9626046 -4.1463017 1.0590695 16
0.96589565 -2.040602 -0.039407533 100
1.2777789 -2.6995029 0.80026847 4
0.77446347 -1.6510515 -0.48865035 6
0.95367146 -2.0330987 0.039198104 12
0.92109466 -1.9636494 -0.50074106 3
0.94742048 -2.0197723 0.11691853 9
1.1080433 -2.3621986 -0.50717032 2
0.94257212 -2.0094364 0.19418299 6
0.94794589 -2.0208926 -0.35354188 50
0.95176524 -2.0290349 0.27518097 3
0.96609646 -2.0595872 -0.27932453 8
0.97726285 -2.0833924 -0.20132977 2
0.9454636 -2.0156007 0.43275481 6
0.95675045 -2.0396628 -0.11806992 53
1.9497745 -4.1566558 1.0599694 15
0.95282221 -2.0312884 -0.039163198 100
1.2667072 -2.7004488 0.7992332 4
0.76869553 -1.6537448 -0.48865035 6
0.94488299 -2.0327885 0.039128296 11
0.91587746 -1.970387 -0.50164086 3
0.95467609 -2.0538568 0.11869795 7
1.1072388 -2.3820748 -0.51060486 2
0.94646972 -2.036202 0.19644904 7
0.94802374 -2.0395453 0.27615592 6
0.96392173 -2.0737476 -0.28078696 8
1.0010576 -2.1536405 -0.20777929 1
0.93014675 -2.0010853 0.42893863 19
1.9459317 -4.1864095 1.0658181 15
1.2548304 -2.6995983 0.79768032 2
0.76453453 -1.6599274 -0.48968562 6
0.93778151 -2.0360744 0.039128296 7
0.90736347 -1.970032 -0.50074106 3
0.94750094 -2.0571768 0.11869795 8
1.1112367 -2.4126735 -0.51632917 2
0.9418568 -2.0449224 0.19697198 3
0.93711996 -2.0346379 -0.35479337 2
0.9408986 -2.0428421 0.27615592 8
0.96332073 -2.0915241 -0.28273687 16
0.9495157 -2.0615513 0.3594864 3
0.98353189 -2.1354058 -0.20568755 1
1.8643808 -4.0478706 0.86627287 2
0.9650473 -2.0952728 -0.12089606 7
1.9484265 -4.2303472 1.075266 17
1.2462075 -2.7057166 0.79819793 1
0.7683602 -1.6836759 -0.49589729 5
0.8956269 -1.9625502 -0.49804163 3
2.3167884 -5.0766826 0.29245332 1
1.1109589 -2.4343982 -0.5201453 2
8.0782356 -17.701504 1.7023259 4
0.94395399 -2.0684474 -0.36011213 1
0.93623447 -2.0515318 0.27688715 5
0.96178311 -2.1075153 -0.28444305 26
0.94149363 -2.063056 0.35917354 2
0.96283704 -2.1098249 -0.20289856 4
1.8494247 -4.0525675 0.86589122 17
0.95109391 -2.0840926 -0.12005869 41
1.9231303 -4.2140756 1.0694174 17
1.772522 -3.8840539 1.1439801 7
0.76545656 -1.6913614 -0.4974502 5
0.95229 -2.1041906 0.040315058 15
0.89427787 -1.9760064 -0.50074106 4
2.2810645 -5.0402656 0.28994119 3
1.1130192 -2.4593399 -0.52472472 2
8.0110846 -17.701382 1.6998856 4
1.1720176 -2.5897031 -0.45021838 1
0.94042492 -2.0779734 0.28005576 1
0.9551574 -2.1105266 -0.28444305 8
9.9902487 -22.074564 3.8376503 3
0.98659891 -2.1800001 -0.2093481 2
1.838303 -4.0619349 0.86665446 23
1.9114889 -4.2236471 1.0703171 19
0.95311451 -2.1060126 -0.040349964 31
1.7579216 -3.8843234 1.1424272 9
0.74927312 -1.6711071 -0.4907209 6
0.94575733 -2.1093266 0.040349964 3
0.88896942 -1.9826723 -0.50164086 4
0.93153095 -2.0775976 0.11932598 8
1.0899698 -2.4309642 -0.51785558 2
0.92599916 -2.0652599 0.19801785 5
1.1694361 -2.6081984 -0.45272133 5
0.9364143 -2.0884888 0.28103071 6
0.94940883 -2.1174705 -0.28493053 9
0.96173388 -2.1449592 0.37231404 1
0.96512586 -2.1525245 -0.20638479 6
1.8192937 -4.0575786 0.86436474 24
0.95441067 -2.1286261 -0.12225679 53
1.8927475 -4.2214031 1.0680676 16
1.7404002 -3.8816221 1.1398391 9
0.74657214 -1.6807745 -0.49279147 6
0.94894147 -2.1363728 0.040803727 22
0.88520747 -1.9928873 -0.50344044 5
0.94778532 -2.13377 0.12236147 2
1.0894471 -2.4526963 -0.52167177 2
3.2416267 -7.297946 0.69864041 1
1.1523058 -2.5942116 -0.44959265 1
0.93314755 -2.1008158 0.28224939 3
0.95248741 -2.144356 -0.28809914 6
0.92617482 -2.0851178 0.36136362 7
0.94870961 -2.1358509 -0.20446737 6
1.8011342 -4.0549331 0.86245668 27
0.94778532 -2.13377 -0.12236147 82
1.9491968 -4.3882699 1.1085588 13
0.95868254 -2.1583033 -0.041222584 100
1.7237034 -3.8806114 1.1377685 9
0.73603231 -1.6727607 -0.48968562 6
0.9455052 -2.148824 0.040978249 29
0.86882746 -1.9745606 -0.49804163 3
0.94676644 -2.1516902 0.12319884 7
1.0690186 -2.4295294 -0.51594752 2
0.93402648 -2.1227367 0.20289856 4
1.1416521 -2.5946019 -0.44896692 1
3.2395308 -7.3623939 0.98762918 3
0.95858771 -2.1785564 -0.29224268 6
0.95628285 -2.1733181 0.37606844 1
1.7782712 -4.041429 0.85825884 24
1.9589822 -4.4521255 1.1229557 19
1.7132592 -3.8936777 1.1398391 9
0.73684043 -1.6913869 -0.49434438 5
0.86314112 -1.9813049 -0.49894145 4
0.93727833 -2.1514838 0.1229895 12
1.0679477 -2.4514301 -0.51976371 2
0.92703569 -2.1279724 0.20307288 8
1.1329237 -2.6005797 -0.44927979 3
3.2323451 -7.4197154 0.99372262 4
0.94504672 -2.1693158 -0.29053652 8
0.93963242 -2.1568875 0.3726269 3
0.95170361 -2.1845965 -0.20847654 5
1.7634467 -4.0479193 0.85825884 24
0.94844592 -2.1771185 -0.1244549 13
1.9418728 -4.4574895 1.1225058 22
1.7005198 -3.9034731 1.1408744 10
0.73475879 -1.7028176 -0.49693257 6
1.1836252 -2.7430742 0.052147791 10
0.85621977 -1.9843057 -0.49894145 3
1.2059218 -2.7947469 0.15952 12
1.0547173 -2.4443274 -0.517474 2
1.2092965 -2.8025675 0.2670452 5
1.1222739 -2.6008911 -0.44865406 7
0.93039042 -2.1561975 0.28834286 1
0.94218743 -2.1835375 -0.29199895 4
0.9258368 -2.1456444 0.37012395 4
0.95354444 -2.2098575 -0.21056828 1
1.7493061 -4.0540504 0.85825884 22
0.93925798 -2.1767483 -0.12424556 32
1.9154927 -4.4391909 1.1162071 19
0.94357276 -2.1867478 -0.041571632 45
1.6899452 -3.9164803 1.1429449 10
0.71923465 -1.6821529 -0.49020326 5
0.93867451 -2.1953809 0.041676346 25
0.85116714 -1.9907178 -0.49984124 4
2.1561639 -5.0428567 0.28742906 12
1.0442903 -2.4423959 -0.51632917 2
3.1613476 -7.3937898 0.70352113 21
1.1214088 -2.6227617 -0.45178273 2
3.1684992 -7.4105158 0.98957908 30
0.93884349 -2.195776 -0.29321763 6
0.93191868 -2.1795802 0.37544271 1
0.9853754 -2.3046052 -0.21928385 1
1.7327654 -4.052608 0.85673237 24
1.905358 -4.4562693 1.1189065 19
0.95125306 -2.2247996 -0.042234823 15
1.67467 -3.916734 1.141392 10
0.71666688 -1.691644 -0.49227384 5
0.84608138 -1.9971181 -0.50074106 3
0.92713803 -2.188447 0.12455957 2
1.0446095 -2.4657304 -0.52052695 6
0.92254591 -2.1776075 0.20690773 3
1.1119347 -2.6246471 -0.45146987 8
0.9323312 -2.2007051 0.29346138 2
0.94472098 -2.2299504 -0.2973612 5
0.93162096 -2.1990287 0.37825853 5
0.93731284 -2.2124639 -0.21021965 8
1.7124244 -4.0420628 0.85329783 26
0.94661576 -2.2344227 -0.12717637 35
1.8913301 -4.4643574 1.1193564 19
0.9563511 -2.2574024 -0.0427933 20
1.6669475 -3.9347174 1.1450155 12
0.71225232 -1.6976981 -0.49330911 5
0.94614458 -2.2551949 0.042688586 2
0.83910495 -2.0000594 -0.50074106 4
0.94730991 -2.2579725 0.12832777 1
1.0420724 -2.4838448 -0.5235799 5
0.94500017 -2.2524672 0.21370588 1
1.0981809 -2.617583 -0.44959265 13
0.95459473 -2.2753365 0.30296719 1
0.93462735 -2.2277429 -0.29663 6
1.9074875 -4.5466161 0.78092086 3
1.0082058 -2.4031217 -0.22799942 1
1.6922283 -4.0335321 0.85024488 23
0.94112843 -2.2432387 -0.12749039 7
1.9488646 -4.6452413 1.162997 35
1.6793609 -4.002862 1.1631328 14
0.70810157 -1.7036184 -0.49434438 5
0.83246791 -2.002831 -0.50074106 3
0.92525208 -2.2260599 0.126339 17
1.018006 -2.4492161 -0.51556593 4
0.92681968 -2.2298315 0.21126552 14
1.0917692 -2.6266825 -0.45053127 2
0.9219014 -2.2179985 0.29492381 7
0.92952043 -2.2363291 -0.2973612 1
1.8916417 -4.5510926 0.780608 4
0.96199602 -2.3144619 -0.21928385 1
1.682611 -4.0481863 0.85215294 22
0.94594955 -2.2758558 -0.12916514 8
1.9199866 -4.6192875 1.1548988 28
1.7016681 -4.0940361 1.1879795 21
0.70332259 -1.7097756 -0.49537966 5
0.82363886 -2.0022643 -0.49984124 3
0.9201262 -2.2368245 0.12675768 27
1.0067817 -2.447484 -0.51442105 6
0.92243052 -2.2424264 0.21213707 27
1.0761228 -2.6160517 -0.4480283 6
0.92131764 -2.2397211 0.2973612 28
0.943973 -2.294796 -0.30467334 1
1.9162799 -4.6584721 0.7978158 3
0.95729637 -2.3271852 -0.2201554 2
1.6617873 -4.0398011 0.84910005 22
0.9322831 -2.2663779 -0.12843244 66
0.93798476 -2.2802386 -0.043037634 32
1.7072293 -4.15027 1.2024733 22
0.68598497 -1.6834739 -0.48709744 4
0.92589045 -2.2722254 0.042828206 7
0.81846535 -2.0085938 -0.50074106 4
0.92099404 -2.2602091 0.12790908 29
0.99273324 -2.4362643 -0.5113681 6
0.921004 -2.2602336 0.21353157 25
1.1501833 -2.8226619 -0.48275676 1
0.92287445 -2.2648239 0.30028605 30
0.95133972 -2.3346803 -0.30954814 1
1.9403286 -4.7617555 0.81439781 5
1.6498634 -4.0489259 0.84986329 22
1.9715234 -4.8383107 1.2061876 1
0.92815423 -2.277781 -0.04293292 25
1.696373 -4.163065 1.2045438 27
0.6884793 -1.7074772 -0.49330911 5
0.93176442 -2.3108413 0.043491397 6
0.814013 -2.0188096 -0.50254065 4
0.91793203 -2.276536 0.12864178 26
0.99260736 -2.4617362 -0.51594752 6
0.91867423 -2.2783768 0.21492606 26
1.2550688 -3.112659 -0.5315643 1
0.91976362 -2.2810786 0.30199224 28
0.93535286 -2.319741 -0.30711076 1
1.9317274 -4.7908201 0.81815225 14
0.93432075 -2.3171811 -0.21858661 3
1.6306072 -4.0440207 0.84757358 22
0.94332635 -2.3395159 -0.13220063 18
1.9464895 -4.8274307 1.2016885 27
0.94896394 -2.3534973 -0.044294208 6
1.6796584 -4.1656709 1.2035086 25
0.6842463 -1.713339 -0.49434438 5
1.0924509 -2.7354751 0.051414788 8
0.80442286 -2.0142586 -0.50074106 3
0.92000741 -2.3036799 0.13000251 26
0.98152596 -2.4577212 -0.51442105 6
0.91702533 -2.2962129 0.21632056 25
1.2374136 -3.0984588 -0.52843565 1
0.91661167 -2.2951772 0.30345467 28
0.94679725 -2.3707614 -0.31344795 1
0.91652131 -2.294951 0.39139903 4
0.9842689 -2.4645896 -0.23218291 1
1.6142752 -4.0421128 0.8460471 24
0.92593336 -2.3185186 -0.13083988 11
1.9311931 -4.8356686 1.2021384 31
1.6629694 -4.1640415 1.201438 28
0.67654222 -1.712242 -0.49330911 4
0.92369235 -2.3377476 0.043875352 29
0.79560262 -2.0135689 -0.49984124 4
0.91229177 -2.3088942 0.13010719 27
0.97395426 -2.4649539 -0.51518428 6
0.91738898 -2.3217945 0.21841229 26
1.2362115 -3.1286938 -0.53281581 1
0.91111118 -2.3059061 0.30442962 28
0.94393742 -2.3889852 -0.31539786 1
1.8975085 -4.802352 0.81783938 2
0.95765746 -2.4237089 -0.22799942 1
1.5958421 -4.0388727 0.84413898 23
0.93871373 -2.3757646 -0.13387537 7
1.6462764 -4.1665154 1.2004027 24
0.67438024 -1.7234713 -0.49589729 4
1.0682265 -2.7299995 0.051170457 6
0.7875008 -2.0125666 -0.49894145 3
0.91190797 -2.3305061 0.13115391 26
0.96291327 -2.4608572 -0.51365781 6
0.91694462 -2.3433778 0.2201554 25
0.91430968 -2.3366439 0.30808571 32
0.93601006 -2.3921022 -0.31539786 1
1.8822926 -4.8104577 0.81815225 12
0.94380683 -2.4120281 -0.22660494 1
1.5824399 -4.0441427 0.84413898 20
0.925008 -2.3639851 -0.133038 83
5.3555737 -13.686904 3.3931618 22
0.93050838 -2.378042 -0.044573445 57
1.6345625 -4.1773491 1.2019557 14
0.66108537 -1.7079154 -0.4907209 3
0.92972636 -2.4019499 0.044957399 12
0.78152597 -2.019074 -0.49984124 2
0.90912777 -2.3487334 0.13199128 25
0.95601338 -2.4698625 -0.51480269 4
0.90691113 -2.3430068 0.21980679 12
0.91505468 -2.3640456 0.31125429 34
0.93010253 -2.4029219 -0.31637281 1
1.9231197 -4.9683838 0.84380752 12
1.5668981 -4.0480843 0.84375739 22
5.3074832 -13.711893 3.3945115 4
0.92972636 -2.4019499 -0.044957399 19
1.6143594 -4.1707006 1.1983322 11
0.64988714 -1.695667 -0.48657981 4
0.93392211 -2.436763 0.045550782 10
0.78180033 -2.0398512 -0.50434029 2
0.91277051 -2.3815749 0.13366604 27
0.93938643 -2.4510205 -0.51022327 2
0.91339719 -2.3832099 0.22329301 17
0.91360396 -2.3837495 0.31344795 31
0.93775839 -2.4467726 -0.32173505 1
1.9158236 -4.9987125 0.84787482 1
0.93264908 -2.4334416 -0.22799942 9
1.5513577 -4.0477586 0.8426125 26
0.93850249 -2.448714 -0.13743421 46
1.9422961 -5.0677838 1.2529774 26
1.5949889 -4.1616001 1.1941911 21
0.64983064 -1.7142954 -0.49123853 5
1.0015352 -2.6421149 0.0493205 7
0.76879275 -2.0281253 -0.50074106 1
0.91253072 -2.4073155 0.1349221 27
0.93526787 -2.4672976 -0.51289457 2
0.91313064 -2.4088981 0.22538476 23
0.91119361 -2.4037881 0.31564161 33
0.93863493 -2.4761801 -0.32514742 1
0.9123354 -2.4068 0.4076682 3
0.95903438 -2.529995 -0.236715 1
1.5288568 -4.0332236 0.83841473 24
1.9333791 -5.1003799 1.259276 42
0.93278146 -2.4607382 -0.045934733 118
1.5776709 -4.1619987 1.1926382 25
0.64685726 -1.7236756 -0.49330911 5
0.91196954 -2.4301183 0.045306448 36
0.90734971 -2.4178081 0.13534078 26
0.92501152 -2.4648712 -0.51174974 1
0.91143769 -2.4287012 0.22695355 24
0.90530974 -2.4123719 0.31637281 31
0.93739313 -2.4978642 -0.3275848 1
4.9458113 -13.179066 2.2295041 1
0.93383867 -2.4883928 -0.23253152 7
1.5182329 -4.0456238 0.8399412 27
0.9298054 -2.4776454 -0.13869028 13
1.5631819 -4.1653986 1.1921206 28
0.64456809 -1.7369019 -0.49641493 4
1.0039374 -2.7052853 0.050367646 6
0.75325912 -2.029789 -0.49984124 1
0.90473586 -2.4379697 0.13628283 26
0.910155 -2.4525726 0.22887099 25
0.90613091 -2.4417288 0.31978515 26
0.94618857 -2.5496712 -0.333922 1
4.901598 -13.208216 2.2313812 3
0.95451903 -2.572119 -0.24002692 2
1.5027118 -4.0493207 0.83955956 24
0.92349768 -2.4885266 -0.13910897 37
1.933659 -5.2105837 1.2831209 33
0.91766691 -2.4728146 -0.046039447 75
1.5519371 -4.1819673 1.1952263 24
0.63480806 -1.7281495 -0.49330911 4
0.92463088 -2.5171394 0.046807352 27
0.7639944 -2.0798357 -0.51153868 1
0.90353298 -2.4597042 0.13732955 25
0.91861218 -2.5007546 -0.51785558 1
0.9068259 -2.4686687 0.23009115 24
0.90418917 -2.4614906 0.32197881 24
0.93772835 -2.5527949 -0.333922 1
0.90180713 -2.4550059 0.41423845 1
0.92949659 -2.5303853 -0.23584343 10
1.4852138 -4.0432243 0.83726984 24
0.92832506 -2.5271962 -0.14109774 6
1.9143535 -5.2114792 1.2817711 12
1.528069 -4.1598897 1.1874617 27
0.62283379 -1.7140137 -0.48865035 4
0.97525561 -2.6838644 0.049844071 14
0.74741203 -2.056848 -0.50524008 1
0.9051733 -2.4910007 0.13889962 23
0.89445567 -2.4615061 -0.50907838 2
0.90092498 -2.4793093 0.23078841 24
0.904405 -2.4888864 0.32514742 10
0.93830323 -2.5821729 -0.33733433 1
1.9483794 -5.3618617 0.90356547 1
0.91657549 -2.5223789 -0.23479757 33
1.4690797 -4.0428486 0.83612502 27
0.91540509 -2.5191581 -0.1404697 59
5.396275 -14.850332 3.6478064 30
1.5108998 -4.1579356 1.1853912 25
0.61910778 -1.7215233 -0.49020326 5
0.92777747 -2.5798261 0.047854498 7
0.7300356 -2.0299749 -0.49804163 2
0.90299088 -2.5109034 0.13984168 21
0.88894564 -2.4718482 -0.51060486 6
0.90146351 -2.5066562 0.23305446 25
0.91025382 -2.5310991 0.33026591 3
0.95391911 -2.6525171 -0.34610894 1
1.9299196 -5.3664346 0.9032526 31
0.91899383 -2.555402 -0.23758656 21
1.4516788 -4.0366135 0.8338353 27
0.92168701 -2.5628908 -0.047540355 21
1.4957957 -4.1592875 1.184356 25
0.61667645 -1.7347023 -0.49330911 4
0.93372142 -2.6265454 0.048657309 12
0.72585422 -2.0418179 -0.50029117 2
0.89511991 -2.5179598 0.14005102 17
0.88316792 -2.4843392 -0.51251298 7
0.90027845 -2.5324709 0.23514619 6
1.9069993 -5.3643627 0.69904256 9
0.9428609 -2.6522548 -0.34562147 3
4.6938782 -13.203815 2.2194922 24
0.92230159 -2.5944216 -0.24089848 14
1.436874 -4.0419068 0.8338353 27
0.91318285 -2.5687706 -0.14287716 46
5.6443 -15.877337 3.8903036 2
0.92166477 -2.5926301 -0.048029024 16
1.479247 -4.1611013 1.1833206 25
0.6147669 -1.7476721 -0.49641493 4
0.92766058 -2.6371729 0.048796929 6
0.72166592 -2.0515671 -0.50209075 3
0.87166733 -2.4779942 -0.51060486 6
0.9150154 -2.6012249 0.2412471 1
0.89585495 -2.5467551 0.33148462 3
0.9366954 -2.6628573 -0.34659642 7
4.6454782 -13.206263 2.2173021 38
0.92889929 -2.6406944 -0.24490763 10
1.4215083 -4.0410933 0.83269048 24
0.92189109 -2.6207712 -0.14559864 16
5.4422407 -15.471315 3.7863762 7
0.91969782 -2.6145363 -0.048378069 34
1.4680043 -4.1732736 1.1853912 24
0.60074484 -1.7280169 -0.49020326 4
0.9087956 -2.6141119 0.048308261 22
0.72502023 -2.0854897 -0.5097391 3
0.905065 -2.6033809 0.14444724 14
0.86580259 -2.4904442 -0.51251298 2
0.92379415 -2.6572545 0.24612781 1
0.93018848 -2.6756475 -0.3478151 14
0.91398048 -2.6290259 -0.24351315 15
1.4099108 -4.0555482 0.83459854 26
0.91555852 -2.6335649 -0.14612199 38
5.3842192 -15.487476 3.7854764 7
0.92258513 -2.6537769 -0.049041264 100
1.4444519 -4.1549044 1.1786619 27
0.60129434 -1.7482678 -0.49537966 4
0.90792644 -2.6398029 0.048727117 29
0.71239626 -2.0712974 -0.50568998 2
0.91071779 -2.6479187 0.14675002 7
0.86137033 -2.5044408 -0.51480269 1
0.93636131 -2.7224774 0.25188011 13
0.90646118 -2.6355426 0.34220913 9
0.91872811 -2.6712089 -0.34684014 14
1.9248333 -5.596467 0.93735534 33
0.9182173 -2.6697237 -0.24699937 7
1.3881536 -4.036067 0.82963753 24
5.3917751 -15.676626 3.8273172 15
0.90922719 -2.6435847 -0.048796929 31
1.4281526 -4.1523643 1.1765914 27
0.59426093 -1.7486308 -0.49486202 5
0.89695811 -2.6393261 0.048657309 33
0.70417273 -2.0720496 -0.50524008 3
0.90293455 -2.6569121 0.14706403 11
0.85597563 -2.518734 -0.51709241 1
1.9194268 -5.6479712 0.52188861 11
0.89935035 -2.6463654 0.34318408 4
0.92362255 -2.7177873 -0.35244614 1
1.9074864 -5.6128364 0.93891966 9
0.91034937 -2.6787305 -0.24752231 16
1.3701928 -4.0318332 0.8277294 27
0.91257441 -2.6852777 -0.14863412 34
5.5023293 -16.190769 3.947891 33
0.92076546 -2.7093799 -0.049948785 13
1.4116806 -4.1539125 1.1755561 27
0.59276783 -1.76341 -0.49848548 5
0.91368723 -2.7181048 0.050053503 8
0.6917094 -2.0577488 -0.50119096 2
0.89093703 -2.6504259 0.14654067 1
0.84761852 -2.5215588 -0.51709241 1
0.88876474 -2.6439636 0.24403608 5
0.8893047 -2.6455698 0.34269661 12
2.0316122 -6.0437913 -0.78288865 2
4.4467902 -13.228643 2.2104189 1
0.91542768 -2.7232826 -0.25135717 9
1.355564 -4.0326328 0.82696617 27
0.90939212 -2.7053275 -0.14957616 20
9.9068432 -29.471617 7.1781883 7
1.4046689 -4.1787138 1.1812501 28
0.58508295 -1.7619039 -0.4974502 4
0.89552605 -2.6967642 0.049599741 34
0.68969005 -2.076915 -0.50524008 2
0.89002889 -2.6802101 0.14800608 7
0.8297087 -2.4985635 -0.51174974 1
0.89664954 -2.7001474 0.2489168 1
0.92652267 -2.7901068 0.36097699 20
1.9869251 -5.9833755 -0.77411407 2
4.4125934 -13.287971 2.2176149 1
0.91046345 -2.7417464 -0.25275165 27
1.3407747 -4.0375743 0.82696617 23
0.90891212 -2.7370746 -0.15114625 42
9.8724556 -29.72966 7.2321763 7
0.90497917 -2.7252312 -0.050123312 56
1.3844731 -4.169167 1.177109 27
0.57742882 -1.7583281 -0.49589729 5
0.90217608 -2.7472157 0.05047236 37
0.68766308 -2.0940025 -0.50883931 2
0.88861394 -2.7059176 0.14926215 5
0.83244437 -2.5348756 -0.51861882 1
0.88706893 -2.7012131 0.24874249 8
0.89063299 -2.7120659 0.35049623 10
1.4269947 -4.3453407 -0.56157392 1
4.3722029 -13.313791 2.2194922 1
0.90260977 -2.7485363 -0.25310028 21
1.3286033 -4.0457287 0.8277294 27
0.90045381 -2.7419713 -0.15125091 15
5.7311339 -17.451872 4.2407775 6
0.90092826 -2.7434161 -0.050402548 42
1.3658181 -4.1590519 1.1729679 27
0.56830591 -1.7511455 -0.49330911 5
0.88826013 -2.7370341 0.050228026 51
0.67794329 -2.0889757 -0.50703967 3
0.89087707 -2.7450976 0.15125091 13
0.81510651 -2.5116227 -0.51327622 1
0.88378477 -2.723244 0.2504856 7
0.89709264 -2.76425 0.35683343 10
1.4148818 -4.359736 -0.5627926 1
4.3305802 -13.344004 2.2219951 1
1.9483856 -6.003644 -0.55221879 2
1.3078066 -4.0298009 0.82353163 24
0.90259099 -2.7811923 -0.15323968 21
5.6858206 -17.519964 4.2524748 42
0.89258105 -2.7503483 -0.05047236 90
1.3483104 -4.1546063 1.1703798 27
0.56072509 -1.747502 -0.49175617 4
0.88162273 -2.7475808 0.050367646 24
0.66803527 -2.0819347 -0.50479019 3
0.88420993 -2.7556438 0.15166961 6
0.80437386 -2.5068345 -0.51174974 1
0.88083661 -2.7451308 0.25222871 14
0.79666632 -2.4828138 -0.41298699 2
0.87943012 -2.7407475 0.35342109 12
1.3907125 -4.3341613 -0.55889279 1
4.2609577 -13.279292 2.2088547 3
0.89970738 -2.8039415 -0.25763237 1
1.2938362 -4.0322461 0.82314998 27
0.88482016 -2.7575457 -0.15177427 54
4.3422294 -13.532575 3.281136 6
0.89384204 -2.7856624 -0.051065743 43
1.332755 -4.1535363 1.1688268 27
0.55840087 -1.7624367 -0.49537966 3
0.87517035 -2.7622316 0.050577074 10
0.66569746 -2.1010888 -0.50883931 3
0.8759138 -2.7645781 0.15198362 8
0.80111021 -2.5284815 -0.51556593 1
0.87919414 -2.7749317 0.25466907 12
0.78696436 -2.483834 -0.41267413 1
0.87837243 -2.7723379 0.35707718 12
1.3748177 -4.3392291 -0.55889279 1
4.2307539 -13.353197 2.2185535 14
1.9274873 -6.0835767 -0.55831969 15
1.2790487 -4.0369611 0.82314998 26
1.9092749 -6.0260949 -0.33128661 19
4.2973094 -13.563261 3.2847352 33
3.3327742 -10.518974 -0.19260475 61
1.3163556 -4.1547098 1.1677915 27
0.55948192 -1.7864015 -0.50159132 3
3.2966785 -10.526152 0.19253495 34
0.65406692 -2.0884073 -0.50524008 3
3.2902741 -10.505703 0.57695156 76
0.78450638 -2.5048947 -0.51022327 2
1.8989662 -6.0633168 0.55587935 4
0.87214065 -2.7847073 0.35829586 2
1.8789588 -5.999434 -0.77192044 2
4.1834979 -13.357728 2.2169893 17
1.9269534 -6.152679 -0.56407195 12
1.2638943 -4.0355597 0.82200515 24
1.8988321 -6.0628886 -0.33296135 16
4.2482314 -13.564419 3.2815859 40
3.2907019 -10.507069 -0.19218589 94
1.3043031 -4.1645827 1.1693444 27
0.55293065 -1.7884401 -0.50159132 3
3.2551227 -10.528611 0.19236043 61
0.65043736 -2.1038229 -0.50838935 3
3.2511568 -10.515784 0.5768469 66
0.78343874 -2.5340126 -0.51556593 1
3.2555885 -10.530118 0.96429116 18
0.80344653 -2.5987272 -0.43082052 1
5.3152246 -17.191959 2.2094913 43
1.9249732 -6.2262769 -0.80019408 2
4.0726628 -13.172924 2.183825 27
1.9108633 -6.1806388 -0.56598938 15
1.2496747 -4.0420408 0.82238674 26
1.8872167 -6.1041541 -0.33484545 16
4.1869745 -13.542663 3.272588 18
1.2833241 -4.1508789 1.1641681 27
0.54135197 -1.7717885 -0.49641493 3
1.9118969 -6.2574391 0.11420855 27
0.63833237 -2.0891953 -0.50434029 2
1.9148201 -6.2670059 0.34342855 14
3.2142475 -10.519897 0.96237373 20
0.77635354 -2.5409241 -0.4208087 1
4.2129283 -13.788475 1.770274 2
1.897355 -6.2098446 -0.79726923 2
1.9107336 -6.2536316 -0.57209027 2
1.2316746 -4.0311422 0.81933385 27
1.8646297 -6.1027384 -0.33442676 16
4.1540008 -13.595611 3.2820358 11
1.9124813 -6.2593513 -0.11424346 56
1.2684232 -4.1514168 1.1631328 27
0.53429669 -1.7719111 -0.49589729 2
1.8895267 -6.2663188 0.11424346 58
0.63123339 -2.0933867 -0.50479019 2
1.8981801 -6.2950163 0.34457994 38
3.1739428 -10.525884 0.96185076 18
0.75163764 -2.4926884 -0.41236126 3
4.1337085 -13.708795 1.7580872 2
1.8699973 -6.2015524 -0.79531932 2
4.0359178 -13.384488 2.2141733 33
3.2314627 -10.716639 -0.9792819 2
1.2157577 -4.0318699 0.81857061 27
1.8860714 -6.2548599 -0.34238183 14
7.2816882 -24.148577 5.8230829 5
3.23523 -10.729133 -0.19560657 41
1.2526413 -4.1541882 1.1626152 27
0.53172737 -1.7847817 -0.49900311 1
3.1984913 -10.73597 0.19553676 46
0.62206239 -2.0879979 -0.50299054 2
3.2077103 -10.766913 0.58877951 14
3.1378827 -10.532532 0.96150213 20
0.75295568 -2.5273507 -0.41768003 1
4.0938935 -13.741452 1.7605245 2
1.3132426 -4.4079947 -0.56474257 1
3.9791028 -13.356149 2.2072904 12
3.1225231 -10.480977 -0.95679575 5
1.2029415 -4.0377607 0.8189522 27
3.3747964 -11.32775 -0.61944836 19
3.1345441 -10.521326 -0.19162743 66
1.238307 -4.1564679 1.1620975 27
0.5180999 -1.7626239 -0.49227384 1
3.0959606 -10.532744 0.19162743 61
0.61935133 -2.1070905 -0.50703967 3
3.0995107 -10.544823 0.57600951 68
0.72694331 -2.4731283 -0.50106442 1
3.0975723 -10.538228 0.96097922 22
0.74145913 -2.5225127 -0.41642854 1
3.0727921 -10.453923 -1.3378817 7
3.9323516 -13.378224 2.2085419 38
3.0835257 -10.490439 -0.95662141 7
1.1859196 -4.0346084 0.81742573 24
3.3332555 -11.340044 -0.61944836 19
4.4607587 -15.175913 3.6518555 2
3.0818624 -10.484781 -0.1907548 86
1.2181613 -4.1442976 1.1574388 24
3.0593431 -10.537192 0.1915227 74
0.61453396 -2.1166186 -0.50883931 3
3.0572863 -10.530108 0.5746488 78
0.69903165 -2.4076512 -0.48732617 14
3.0553875 -10.523568 0.95871317 20
0.74741042 -2.5742805 -0.42456314 1
3.0336807 -10.448804 -1.3359318 11
3.8863139 -13.3855 2.2076032 45
3.044277 -10.4853 -0.95522696 10
1.1736287 -4.0422897 0.81818897 24
3.2922909 -11.339526 -0.61882037 19
1.1578885 -3.9880764 0.95874137 1
3.0459616 -10.491102 -0.19068499 82
1.1968706 -4.1223412 1.1501918 27
0.50578195 -1.7661979 -0.49227384 1
3.0080397 -10.504119 0.1907199 63
0.60891801 -2.1263506 -0.51063889 3
3.007674 -10.502841 0.57255536 57
0.69398588 -2.4234087 -0.48999751 16
3.006923 -10.500218 0.95557559 18
0.74884665 -2.6149833 -0.43082052 1
2.9953637 -10.459853 -1.3359318 16
3.8307016 -13.376865 2.2038488 42
3.0003409 -10.477234 -0.95348382 15
1.1534002 -4.0276904 0.81437278 24
3.2507074 -11.351517 -0.61882037 19
3.0036356 -10.488739 -0.19044065 90
1.1753713 -4.1044135 1.1439801 24
0.50307631 -1.7790191 -0.49537966 1
2.964484 -10.483248 0.19016142 14
0.59762126 -2.1133566 -0.50703967 3
2.9788072 -10.533898 0.57370675 87
0.68541151 -2.4238076 -0.48961589 19
2.9715443 -10.508215 0.95540124 20
2.9579601 -10.460177 -1.3347131 7
3.7857835 -13.387594 2.2035358 40
2.9607012 -10.469871 -0.95191503 7
1.1384349 -4.0258255 0.81322795 28
2.9603288 -10.468554 -0.57014793 21
2.964484 -10.483248 -0.19016142 90
1.1601771 -4.1027117 1.1424272 24
0.48855633 -1.7509919 -0.48709744 2
2.9305599 -10.503162 0.19033594 34
0.58186096 -2.085397 -0.49984124 3
2.9302099 -10.501909 0.57140398 78
0.67641908 -2.4242942 -0.48923427 21
2.9348457 -10.518523 0.95540124 20
1.2627873 -4.5258455 -0.57692945 1
3.7416835 -13.41024 2.2051003 36
2.9343102 -10.516604 -0.95522696 2
1.1217371 -4.0203195 0.81131983 24
2.9371879 -10.526918 -0.57276469 2
2.9257231 -10.485827 -0.1900218 28
1.143253 -4.0974326 1.1398391 21
0.48069507 -1.7451525 -0.4850269 2
2.8904035 -10.493545 0.1899869 25
0.58322233 -2.1173754 -0.50703967 3
2.8868821 -10.48076 0.56972921 45
0.6662907 -2.4189529 -0.48770779 21
2.8941288 -10.507069 0.95348382 8
3.7029634 -13.443523 2.2085419 19
1.1094418 -4.0278029 0.81208307 8
0.44142738 -1.602592 0.3837665 1
1.1281201 -4.095614 1.1382861 22
0.46953532 -1.7281771 -0.4798505 2
0.57276213 -2.108115 -0.50434029 1
0.65835762 -2.4231586 -0.48808941 7
3.6560142 -13.456367 2.2085419 10
0.4291884 -1.5796758 0.37791777 5
1.1128038 -4.0957985 1.1372509 20
0.47580972 -1.7745072 -0.49227384 1
0.44273162 -1.651144 -0.14955926 1
0.42596644 -1.5886194 0.37971738 2
0.4288182 -1.5992547 -0.028901186 1
1.0967139 -4.0901365 1.1346627 16
0.42113009 -1.5950406 -0.14432991 1
0.41910025 -1.5873525 -0.086040311 1
0.42036092 -1.5921273 0.38016728 1
0.41450673 -1.5699544 -0.028342709 1
1.0800145 -4.0905814 1.1336274 13
0.4092983 -1.5713203 0.028342709 1
0.42088237 -1.6157923 0.087505721 1
0.40779272 -1.5655404 -0.084784247 1
0.42542827 -1.6332443 -0.029459663 1
1.0669307 -4.0960102 1.134145 12
0.41269106 -1.6073256 -0.44465113 7
0.40709084 -1.5855142 -0.37791777 9
0.4081699 -1.5897168 -0.31903264 6
0.41855028 -1.6301458 -0.26656434 6
0.40333033 -1.5708679 -0.19913451 4
0.41521817 -1.6171681 -0.14607303 1
0.42818779 -1.6676813 0.33467898 1
0.41027266 -1.5979065 -0.086459003 1
0.41972458 -1.6347194 -0.029459663 1
1.0550286 -4.1090651 1.1367333 10
0.39787424 -1.5712304 -0.43429837 47
0.40153852 -1.585701 0.028552137 2
0.39656878 -1.5660752 -0.37296885 42
0.42164108 -1.6650872 0.090017848 1
0.39566696 -1.5625138 -0.31330836 34
0.39859498 -1.5740767 -0.25717825 34
0.39958081 -1.5779699 -0.19986573 34
0.40153873 -1.5857018 -0.14310972 28
0.42265522 -1.6690922 0.33467898 1
0.41085491 -1.622492 -0.08771506 53
0.41091987 -1.6227486 0.38646591 1
1.0361801 -4.0919409 1.1310393 10
0.3897759 -1.5633059 -0.43171015 73
0.40007788 -1.6046247 0.02886628 45
0.38941184 -1.5618455 -0.37161914 63
0.39959043 -1.6026697 0.086563669 32
0.39183724 -1.5715733 -0.31483483 100
0.40054417 -1.6064949 0.14485285 34
0.39763647 -1.5948328 0.20181563 4
0.39473456 -1.5831938 0.25842974 3
0.3975367 -1.5944326 0.31941426 6
0.39365482 -1.5788633 0.37566826 1
1.0202408 -4.0919623 1.1300039 10
0.39234564 -1.5961426 0.20181563 55
0.38995385 -1.5864124 0.2587426 38
0.38808081 -1.5787925 -0.14223817 100
0.38902932 -1.5826513 -0.085412279 100
0.38423043 -1.5631284 0.37161914 3
0.38759455 -1.5768143 -0.028342709 100
1.007588 -4.0990753 1.1310393 10
0.38302919 -1.5820447 0.028412517 81
0.38350248 -1.5839995 0.085412279 100
0.38538042 -1.5917561 0.14328404 100
0.37968889 -1.568248 0.37251896 3
0.99418265 -4.1063223 1.1320745 9
0.63037598 -2.6460416 -0.43082052 1
0.37721846 -1.5833974 0.25780401 36
0.37529325 -1.5753162 0.37386864 2
0.60798007 -2.5520332 0.7029525 2
0.41259977 -1.7605102 -0.48450926 2
0.51092052 -2.180032 -0.51693749 1
0.57744265 -2.4638736 -0.4919056 3
0.60579902 -2.5848665 -0.42049584 6
0.60379601 -2.5763199 -0.32490367 3
0.37186325 -1.5866926 0.25811687 32
0.60828865 -2.5954895 -0.23322877 1
0.60430652 -2.5784984 -0.13879496 1
0.37396356 -1.5956545 0.37836766 1
0.60869402 -2.5972192 -0.046563022 1
0.59333259 -2.5316739 0.69674087 17
0.41048357 -1.7808355 -0.48968562 3
0.59827238 -2.5955355 0.04649321 2
0.52218604 -2.2654438 -0.53673321 3
0.59933788 -2.6001582 0.13984168 1
0.56752628 -2.4621472 -0.49114236 13
0.59519154 -2.5821695 0.23183428 1
0.59676462 -2.5889945 -0.4208087 24
0.59434927 -2.5785155 -0.32490367 23
0.3664889 -1.5899698 0.25842974 33
0.59474403 -2.5802281 -0.23165996 18
0.59664625 -2.5884807 -0.13921364 18
0.38649645 -1.6767702 0.39726356 1
0.59378082 -2.5760496 -0.046144161 12
0.59099221 -2.5639515 0.70502305 14
0.40691122 -1.7895807 -0.49175617 3
0.58790839 -2.5855997 0.046283782 20
0.51891857 -2.2821851 -0.54033244 3
0.59073478 -2.5980299 0.13963233 12
0.56065375 -2.4657347 -0.49152398 11
0.59017795 -2.5955811 0.23288015 15
0.58820438 -2.5869012 -0.42018297 30
0.58801645 -2.5860748 0.3256349 8
0.59153748 -2.6015601 -0.3275848 29
0.36220774 -1.5929765 0.2587426 12
0.58973622 -2.5936382 -0.23270583 28
0.59939456 -2.6361153 0.52548796 1
0.58896345 -2.5902398 -0.13921364 28
0.58968186 -2.5933993 -0.046423402 28
0.58809382 -2.5864151 0.71071708 19
0.40119219 -1.7948308 -0.49279147 3
0.5775553 -2.5838339 0.046213973 29
0.50459903 -2.2574463 -0.53403378 3
0.57990146 -2.5943301 0.13931832 27
0.55418223 -2.4792688 -0.49381369 11
0.58196461 -2.60356 0.23340307 27
0.57440978 -2.5697618 -0.4170543 25
0.58069921 -2.597899 0.32685357 29
0.57766801 -2.5843379 -0.32514742 28
0.36196867 -1.6193547 0.2628099 1
0.57848758 -2.5880046 -0.23200859 31
0.58030677 -2.5961432 0.51709241 6
0.57859445 -2.5884826 -0.13900431 30
0.35666266 -1.5956171 0.37746787 1
0.58104509 -2.5994463 -0.04649321 28
0.58156013 -2.6017504 0.71434057 25
0.39077628 -1.7773523 -0.48761508 3
0.571109 -2.5975525 0.046423402 25
0.49922678 -2.2706137 -0.53673321 3
0.56912655 -2.5885358 0.13889962 25
0.5417304 -2.4639311 -0.49037912 13
0.57287294 -2.6055756 0.23340307 25
0.5688296 -2.5871854 -0.41955724 25
0.56949598 -2.5902162 0.3256349 32
0.56565958 -2.5727673 -0.32344124 28
0.57307142 -2.6064785 0.42268592 28
0.57116157 -2.5977919 -0.23270583 29
0.57377046 -2.6096578 0.51938206 20
0.56783986 -2.5826838 -0.13858561 25
0.35109076 -1.5968523 0.37746787 1
0.57025015 -2.5936465 -0.04635359 28
0.57662314 -2.6226325 0.71951693 28
0.38670683 -1.7901025 -0.4907209 3
0.56074017 -2.5957191 0.04635359 24
0.48514041 -2.2457609 -0.53043461 3
0.56005698 -2.5925567 0.13900431 25
0.53435421 -2.4735761 -0.4919056 13
0.56247777 -2.6037626 0.23305446 26
0.55850905 -2.5853913 -0.41893148 25
0.56041771 -2.5942266 0.32587862 29
0.55622607 -2.5748231 -0.32344124 28
0.56059462 -2.5950456 0.42049584 24
0.55785006 -2.5823407 -0.23113702 28
0.56295812 -2.6059864 0.51823723 26
0.55921352 -2.5886521 -0.13879496 25
0.35099643 -1.6247956 0.3837665 1
0.55905116 -2.5879006 -0.046213973 29
0.56415141 -2.6115103 0.71589351 27
0.38268909 -1.7988667 -0.49279147 4
0.55091828 -2.5896442 0.046213973 23
0.47646078 -2.2396495 -0.52863497 3
0.55190945 -2.5943034 0.13900431 25
0.52576357 -2.4714019 -0.49114236 13
0.55056381 -2.5879779 0.23148565 25
0.54709578 -2.571676 -0.41642854 25
0.55433023 -2.6056826 0.32709733 32
0.54937351 -2.5823829 -0.32417247 29
0.55202824 -2.5948617 0.42018297 24
0.54807633 -2.5762854 -0.23043978 28
0.55190873 -2.5943 0.51556593 25
0.55190945 -2.5943034 -0.13900431 27
0.55553299 -2.611336 0.61636591 22
0.55091828 -2.5896442 -0.046213973 27
0.55514038 -2.6094906 0.71485817 26
0.37688345 -1.8040394 -0.49382675 3
0.5401963 -2.5857737 0.046109259 24
0.46824884 -2.2413809 -0.52863497 3
0.54117185 -2.5904436 0.13869028 25
0.51830781 -2.4809995 -0.49266884 12
0.54188955 -2.593879 0.23183428 24
0.5368585 -2.5697966 -0.41580281 25
0.5415287 -2.5921516 0.32514742 31
0.54193461 -2.5940948 -0.32539114 28
0.54332179 -2.6007347 0.4208087 25
0.54107469 -2.5899785 -0.23148565 28
0.54199499 -2.5943837 0.51518428 26
0.53953815 -2.5826235 -0.1382716 24
0.54874778 -2.6267076 0.61951518 31
0.54224092 -2.595561 -0.046283782 28
0.54636252 -2.6152897 0.71589351 27
0.37291461 -1.8166983 -0.49693257 3
0.53076488 -2.5856848 0.046074353 23
0.4666917 -2.2735448 -0.53583342 3
0.53212625 -2.5923169 0.13869028 25
0.51201296 -2.4943326 -0.49495852 12
0.53443444 -2.6035616 0.23253152 25
0.52947378 -2.5793951 -0.4170543 25
0.53127962 -2.5881925 0.32441619 33
0.52968299 -2.5804143 -0.32344124 29
0.53463745 -2.6045506 0.42112157 24
0.53082883 -2.5859964 -0.23096272 30
0.53569895 -2.6097219 0.51785558 29
0.52971661 -2.5805781 -0.13806225 29
0.53408968 -2.601882 0.61321658 29
0.53558999 -2.6091909 -0.04649321 28
0.53800702 -2.6209657 0.71692878 26
0.36930567 -1.8332033 -0.50107366 3
0.5220741 -2.5915334 0.046144161 25
0.44911921 -2.2293913 -0.52503574 3
0.52183247 -2.5903339 0.13848095 25
0.5001533 -2.4827204 -0.49228722 12
0.52606875 -2.6113625 0.23305446 26
0.52001625 -2.5813184 -0.4170543 27
0.52335793 -2.5979064 0.32539114 33
0.51943767 -2.5784464 -0.32295376 28
0.52313715 -2.5968101 0.41955724 24
0.52134711 -2.5879245 -0.23096272 28
0.5222531 -2.5924218 0.51403946 22
0.52025473 -2.5825021 -0.13806225 27
0.52185577 -2.5904496 0.61006725 28
0.5220741 -2.5915334 -0.046144161 29
0.52839708 -2.62292 0.71692878 27
0.36091575 -1.8210895 -0.4974502 4
0.51393002 -2.5931606 0.046144161 24
0.44590163 -2.2499068 -0.52953476 4
0.51252729 -2.5860832 0.13816692 26
0.4919695 -2.4823534 -0.4919056 13
0.51437634 -2.5954127 0.23148565 25
0.51190424 -2.5829394 -0.4170543 25
0.51403606 -2.5936959 0.32465994 32
0.51133472 -2.5800655 -0.32295376 29
0.51305634 -2.5887525 0.41799289 24
0.51321435 -2.5895495 -0.23096272 30
0.51715952 -2.6094561 0.51709241 26
0.51369214 -2.5919604 -0.13848095 29
0.51371503 -2.5920761 0.61006725 29
0.51159751 -2.5813916 -0.045934733 27
0.51639873 -2.6056173 0.71175236 27
0.35534453 -1.8280892 -0.49900311 4
0.50289589 -2.5871751 0.046004545 25
0.43319029 -2.2285707 -0.52413595 3
0.50342649 -2.5899048 0.1382716 26
0.4768742 -2.453305 -0.4857997 12
0.50257921 -2.585546 0.23043978 25
0.49828777 -2.5634682 -0.41361272 24
0.50528383 -2.5994599 0.32514742 30
0.50187486 -2.5819223 -0.32295376 28
0.5050723 -2.5983717 0.41924438 25
0.49991804 -2.5718553 -0.2292196 29
0.50496972 -2.5978439 0.51442105 26
0.50456977 -2.5957866 -0.13858561 29
0.5056985 -2.6015933 0.61186689 28
0.50136966 -2.5793233 -0.045864925 28
0.50647658 -2.6055961 0.71123475 31
0.35004714 -1.8350114 -0.50055605 5
0.4923631 -2.5810578 0.045864925 24
0.41481891 -2.174557 -0.51108879 3
0.49400872 -2.5896845 0.13816692 26
0.46830764 -2.4549546 -0.4857997 2
0.49541759 -2.59707 0.23131134 25
0.46712762 -2.4487689 -0.3948406 22
0.49285918 -2.5836585 0.32295376 29
0.49360314 -2.5875583 -0.32344124 28
0.49599922 -2.6001191 0.41924438 24
0.49168423 -2.5774989 -0.22956823 28
0.49258754 -2.5822344 0.51098651 26
0.49213746 -2.579875 -0.13764356 29
0.49734449 -2.6071711 0.61276668 28
0.49461132 -2.5928433 -0.046074353 28
0.49665427 -2.6035528 0.71019948 28
0.34544936 -1.8476757 -0.50366187 4
0.48253223 -2.5808794 0.045830019 25
0.40863666 -2.1856403 -0.51333833 3
0.48304552 -2.5836246 0.13774824 25
0.4614715 -2.4682336 -0.48808941 8
0.48662785 -2.6027853 0.23165996 26
0.45415592 -2.4291055 -0.39139903 7
0.48265666 -2.5815449 0.32246628 29
0.48083258 -2.5717885 -0.32124758 16
