# .PCD v0.7 - Point Cloud Data file format
VERSION 0.7
FIELDS x y z intensity
SIZE 4 4 4 4
TYPE F F F F
COUNT 1 1 1 1
WIDTH 1384
HEIGHT 1
VIEWPOINT 0 0 0 1 0 0 0
POINTS 1384
DATA ascii
0.94506997 1.4519491 -0.39996296 6
2.9602768 4.5479927 0.28439358 1
1.0891954 1.6733749 -0.38810548 6
2.9508853 4.5335641 0.47325569 41
1.2435522 1.9105194 -0.36105075 3
3.1512437 4.8413825 0.7092796 6
1.1402954 1.7518817 -0.25665683 4
2.855644 4.3872414 0.82910264 1
2.0955091 3.2194149 -0.33607253 1
2.8731136 4.4140806 -0.27601984 18
6.7728243 10.405363 2.8663263 3
3.0817015 4.7345424 -0.098606095 2
2.8317161 4.3504796 1.3908936 2
0.82663232 1.2598646 -0.40375772 10
0.94824719 1.4452169 -0.39906317 5
3.1599026 4.8159852 0.3018738 16
1.1060915 1.6857862 -0.39192167 6
2.9816909 4.544374 0.47552174 8
1.2061161 1.838233 -0.34822312 7
5.7749252 8.8015223 1.2925463 10
1.5833945 2.4132404 -0.35439605 2
5.7705016 8.7947807 1.6660271 6
1.1727839 1.7874316 -0.18703623 2
2.8196177 4.2973595 0.99907589 1
2.8892729 4.4035206 -0.27601984 16
5.7632475 8.7837248 2.4254222 1
3.1714361 4.8335633 -0.10090981 17
5.7461548 8.7576742 2.8066337 1
0.83719647 1.2667866 -0.40686354 10
0.94443893 1.4290582 -0.39546394 6
3.1934745 4.83214 0.30354854 5
1.1073458 1.6755575 -0.39039519 6
2.8616269 4.3300118 0.45408142 1
1.2557706 1.9001433 -0.36073789 6
5.7789068 8.7442331 1.2869402 43
1.6012388 2.4228814 -0.3565897 2
5.7898321 8.7607651 1.6632112 16
2.1069484 3.1880853 -0.33432943 1
5.7954345 8.7692423 2.0431826 1
2.8961511 4.3822513 -0.27528712 14
2.8376145 4.2936778 1.1881914 1
1.2006676 1.8167654 -0.038011342 4
5.7666435 8.7256775 2.8024926 1
0.8413927 1.2640033 -0.40686354 10
1.2055776 1.8111092 0.037976436 3
0.9578113 1.4388962 -0.39906317 6
1.1919348 1.7906141 0.11273165 6
1.1085446 1.665339 -0.38886872 5
1.2795583 1.9222486 0.20202701 1
1.2576864 1.8893911 -0.3594864 7
5.7891726 8.6969299 1.2827967 56
1.6147645 2.4258206 -0.35780838 2
5.7860141 8.6921854 1.6538252 17
3.0250127 4.5444012 -0.47761348 2
5.8005495 8.7140207 2.0347872 1
2.9007068 4.3576598 -0.27434507 16
5.791141 8.6998873 2.4128251 1
2.8367565 4.2615891 1.3717409 1
0.83912486 1.2515787 -0.40375772 10
5.8674617 8.7514868 0.18391345 2
0.9604072 1.4324747 -0.39816338 6
5.8458538 8.7192583 0.55015558 2
1.1009415 1.6420857 -0.38428932 5
1.2138073 1.8104283 0.19069676 3
1.2573447 1.8753656 -0.35760918 10
5.796977 8.6463575 1.2781657 63
1.6227999 2.4204524 -0.35780838 2
5.798306 8.6483393 1.6491321 26
2.11917 3.1608026 -0.33293495 1
1.2365093 1.8442889 0.43160996 1
2.9118047 4.34304 -0.27403107 18
5.7939143 8.6417885 2.4020274 1
3.9409652 5.8780622 -0.12352813 3
5.7759762 8.6150331 2.7791989 1
0.83721644 1.2388909 -0.40065187 10
0.97438008 1.4418621 -0.40176257 5
5.8151479 8.6051035 0.54429394 2
1.1157467 1.6510527 -0.38734227 5
3.1024029 4.5908546 0.48476025 1
1.2631037 1.8691078 -0.35729632 11
5.8108449 8.5987358 1.2742659 47
1.6205455 2.3980408 -0.355371 2
1.2332405 1.8249171 0.34884885 15
2.1061981 3.1166968 -0.32910007 1
5.7952876 8.5757141 2.0118899 30
2.9198751 4.3207545 -0.27329835 16
1.239525 1.8342165 0.51108879 3
4.1550651 6.1485562 -0.12953176 21
1.2385179 1.8327262 0.59269559 6
0.8521899 1.2520782 -0.40582827 10
2.8927605 4.2501822 0.089740276 1
0.96819133 1.422513 -0.39726356 6
5.8211756 8.5527496 0.54220051 2
1.1190064 1.6440977 -0.38657904 6
2.9046123 4.2675953 0.45164105 1
1.2670721 1.861643 -0.35667059 13
5.8192225 8.54988 1.2698785 35
1.6396581 2.4090643 -0.35780838 2
5.8107481 8.5374289 1.6356788 10
2.1120377 3.103107 -0.32840285 1
5.7993913 8.5207434 2.0034945 50
2.9117117 4.2780261 -0.27120492 16
1.253276 1.841373 0.51423812 1
4.1866827 6.1512747 -0.12988082 7
5.7914128 8.5090208 2.7579758 1
0.85677326 1.2489463 -0.40582827 10
5.8471799 8.5236244 0.18042298 2
0.97119379 1.415741 -0.39636377 6
5.8298874 8.4984169 0.54010707 2
1.1250248 1.6399853 -0.38657904 5
1.2660648 1.8455838 -0.3544805 8
5.8112173 8.4712009 1.2613477 1
1.6372473 2.3866689 -0.355371 2
1.2627124 1.8406971 0.35354188 2
2.1279051 3.1019168 -0.32910007 1
5.8039284 8.4605761 1.9943357 30
2.9126842 4.2459145 -0.2698442 18
5.8260603 8.4928389 2.3777328 1
3.0440629 4.4374299 -0.093928851 15
2.8380616 4.1371346 1.3443061 1
0.86091024 1.2460983 -0.40582827 10
4.2568045 6.1613822 0.13071853 31
0.98031402 1.4189258 -0.39816338 6
5.858037 8.4790382 0.54010707 2
1.1259931 1.6297846 -0.38505256 6
3.2061372 4.640626 0.49347582 1
1.2676866 1.8348744 -0.35322902 8
5.8392773 8.4518843 1.2613477 1
1.6507946 2.3893926 -0.3565897 3
1.2676866 1.8348744 0.35322902 1
2.1517699 3.1145141 -0.33119181 1
2.9210718 4.2280164 -0.26932085 18
2.8346031 4.10286 1.1512995 1
3.0473945 4.4108586 -0.093579806 18
5.797967 8.3920908 2.733129 1
0.8654716 1.2429346 -0.40582827 10
4.2565045 6.1129179 0.13002042 40
0.98773521 1.4185216 -0.39906317 6
5.8548365 8.4083385 0.53696692 2
1.1297153 1.6224244 -0.38428932 5
2.8701861 4.1219764 0.43943927 1
1.2631153 1.8140048 -0.35010034 8
2.8732862 4.1264286 0.6173901 1
1.6618098 2.3865843 -0.35707718 3
1.2732744 1.8285947 0.35291615 1
2.1631708 3.1066065 -0.33119181 1
5.8134904 8.3489609 1.9775444 1
2.9388311 4.2205596 -0.26953018 10
2.8329182 4.0684543 1.1445509 4
3.0406868 4.3668385 -0.092881709 17
5.8055038 8.337491 2.7222588 1
0.86293358 1.2305675 -0.40272245 10
4.2514939 6.0627494 0.12925252 36
0.99690926 1.4216206 -0.40086278 5
4.3265843 6.1698308 0.39492711 9
1.1373436 1.621884 -0.38505256 5
1.263453 1.8017195 -0.34853598 9
5.8616681 8.3589029 1.253548 1
1.6640162 2.3729339 -0.35585847 2
5.8613334 8.3584261 1.6169066 1
2.168885 3.092891 -0.33049458 1
5.8276181 8.3103476 1.972965 1
2.9723051 4.2385907 -0.27130958 4
2.838562 4.0478692 1.1414016 1
3.052855 4.353457 -0.092811897 15
2.8416913 4.0523314 1.3261888 4
0.86743802 1.2273964 -0.40272245 10
0.99986362 1.4147743 -0.39996296 5
4.3560853 6.1637182 0.39555517 45
1.1568775 1.6369438 -0.38963196 6
1.2860093 1.819661 -0.35291615 9
5.8853912 8.3276367 1.2520857 1
1.2568181 1.7783564 -0.26738134 8
5.8531666 8.2820387 1.6062691 1
2.2124038 3.1304789 -0.33537531 1
5.8580379 8.2889318 1.972965 1
2.8909929 4.0906601 -0.26251715 12
2.8713744 4.062901 1.1486001 1
3.0410919 4.3030457 -0.091974184 17
5.8089356 8.2194538 2.6968944 1
0.88046491 1.2371045 -0.40686354 10
1.3601211 1.9110495 0.040943347 1
0.99550986 1.3987494 -0.39636377 6
4.3626037 6.1297126 0.39429909 60
1.157746 1.6267005 -0.38810548 4
1.312654 1.8443555 -0.35854781 12
5.8623281 8.2369127 1.2413611 1
5.8576899 8.2303953 1.6000117 1
1.2765924 1.7936866 -0.1926142 3
2.8846884 4.0531554 0.96701998 1
1.2866611 1.8078339 -0.11629049 3
5.8498917 8.2194386 2.3291433 1
1.302145 1.8295896 -0.039198104 6
5.820478 8.1781111 2.6896474 1
0.88477784 1.2340236 -0.40686354 10
1.2980367 1.8104068 0.038883962 4
1.0071994 1.4047682 -0.39906317 5
1.1542654 1.6098851 -0.38505256 4
1.3153522 1.8345573 0.19749491 4
1.317933 1.8381568 -0.35823491 17
6.0020871 8.371273 1.26476 1
1.6934006 2.3618317 -0.35683343 2
6.0014873 8.3704367 1.6312985 1
2.2104418 3.082963 -0.33188906 1
2.8850913 4.0239148 0.96244055 1
2.902477 4.0481629 -0.26105174 5
6.0761266 8.4745378 2.4074261 1
3.0225377 4.2156153 -0.090543084 20
2.8299384 3.9469914 1.3013421 1
0.8820799 1.2216852 -0.40375772 10
1.0095707 1.3982606 -0.39816338 6
1.3188125 1.826562 0.11806992 1
1.1595976 1.6060486 -0.38505256 4
3.3601375 4.6538076 0.50219136 1
1.3170832 1.8241669 -0.35635772 13
1.3328574 1.8460143 0.27956828 6
1.7012234 2.3562031 -0.35683343 2
1.3240213 1.8337762 0.35823491 6
2.2346489 3.095 -0.3339808 1
1.3296872 1.8416235 0.44153202 4
2.8995168 4.0158458 -0.25958633 3
6.1715002 8.5475597 2.4339705 1
3.0166006 4.1780071 -0.089949705 20
6.1689053 8.5439653 2.8237157 1
0.88427848 1.2153198 -0.40272245 10
1.0215681 1.4040055 -0.40086278 5
1.1666313 1.6033752 -0.38543418 4
3.377172 4.6414609 0.50219136 1
1.3435179 1.8464814 -0.36167648 9
6.2776179 8.6277266 1.3100954 1
1.7308706 2.3788447 -0.36122075 2
6.2387576 8.5743189 1.6794804 1
2.2412887 3.0803447 -0.33328357 1
6.2305045 8.5629759 2.0584474 1
2.9059906 3.9938865 -0.25885364 5
1.3425996 1.8452195 0.52683538 4
3.0024805 4.1264987 -0.089077085 19
1.340057 1.841725 0.6102953 3
0.89079946 1.2153419 -0.40375772 10
1.0218546 1.3941441 -0.39906317 5
3.388659 4.6232395 0.30040839 3
1.1710604 1.5977097 -0.38505256 4
3.3803968 4.6119676 0.50027394 4
1.3429484 1.832221 -0.35979927 9
2.8880446 3.9402378 0.59984088 1
1.7286021 2.3583789 -0.35902709 3
6.2803273 8.5684214 1.6826091 1
2.2355378 3.050005 -0.33084321 1
1.374168 1.8748149 0.45183569 1
3.1100097 4.2430706 -0.27570581 14
2.8455253 3.8822277 1.1112581 1
2.9955876 4.0869617 -0.088448793 19
6.2812781 8.5697184 2.8470094 1
0.90192127 1.2215499 -0.40686354 10
1.3350651 1.808194 0.03923301 2
1.02903 1.3937041 -0.39996296 5
2.9041438 3.9333329 0.25623685 1
1.1801288 1.5983503 -0.38619742 4
2.9609687 4.0102959 0.43612733 19
1.3481625 1.825933 -0.3594864 8
6.3306227 8.5741091 1.308633 1
1.7262118 2.3379579 -0.35683343 2
6.3336654 8.5782299 1.6888665 1
2.2864075 3.0966792 -0.33676979 1
1.3608797 1.8431569 0.4453482 3
3.0678577 4.1550651 -0.27068156 12
6.3107662 8.5472155 2.4528663 1
3.0003333 4.0636106 -0.08816956 21
2.8652639 3.8806744 1.2925423 1
0.90848559 1.2214944 -0.40789881 8
1.3998449 1.8821461 0.040943347 1
1.0222588 1.3744669 -0.39546394 5
3.412509 4.5882516 0.29967567 1
1.178671 1.5847692 -0.38390771 4
3.4255912 4.6058412 0.50219136 12
1.3486336 1.8132907 -0.35792205 23
6.4031615 8.6093006 1.3174076 1
1.7414703 2.341475 -0.35829586 2
6.3800745 8.5782595 1.6932466 1
2.2591541 3.0375211 -0.33119181 1
1.3755068 1.8494226 0.44801953 2
2.8570673 3.8414388 -0.25089857 3
6.3731265 8.5689173 2.4654636 1
2.9834716 4.011394 -0.087262034 19
6.3709278 8.5659618 2.8604681 1
0.89884418 1.1997627 -0.40168715 10
1.3728347 1.8324376 0.03996601 1
1.034061 1.3802478 -0.39816338 5
3.444072 4.5970917 0.30103642 1
1.1830186 1.579074 -0.38352609 4
3.4308963 4.579505 0.50062257 11
1.3502173 1.8022484 -0.35667059 9
6.5022078 8.6790419 1.3315444 1
1.3901846 1.8555959 -0.28468677 2
6.4170856 8.5654221 1.6951239 1
2.3103597 3.0838308 -0.33711842 1
1.3984339 1.866607 0.45336217 1
2.8800392 3.8442297 -0.25173596 1
6.4403887 8.5965261 2.4798603 1
2.9746752 3.9705482 -0.086598843 19
6.4239559 8.5745926 2.8708208 1
0.91466361 1.2120382 -0.40686354 10
1.4129505 1.8723276 0.040943347 1
1.0459158 1.385963 -0.40086278 6
1.2074451 1.6000085 -0.38963196 5
3.4312587 4.5468264 0.49835655 1
1.3719691 1.8180223 -0.36073789 8
1.3452355 1.7825972 -0.27420601 12
2.8986268 3.8410254 0.76214874 1
6.5043569 8.6190472 2.0988989 1
2.8759749 3.8110092 1.1022601 1
6.4747944 8.5798731 2.8801384 1
0.9095363 1.1965343 -0.40272245 10
1.4194775 1.8673841 0.040943347 1
1.0483887 1.3792007 -0.39996296 6
1.2225274 1.6082877 -0.39268491 5
1.3460307 1.7707616 -0.35229042 9
1.3538523 1.7810513 -0.27469349 5
2.8940856 3.8072948 0.75745571 1
1.3696803 1.8018737 -0.19801785 1
6.5415316 8.6056681 2.1011887 1
1.3512722 1.7776572 -0.1170232 2
6.552135 8.6196165 2.4996562 1
1.3807535 1.8164409 -0.039826393 1
2.8630519 3.7664685 1.2676957 2
0.92310286 1.2056231 -0.40686354 10
1.3737133 1.794145 0.039442439 7
1.0437191 1.3631545 -0.39636377 6
1.362326 1.7792727 0.11744189 1
1.230521 1.607128 -0.39344814 6
1.3582081 1.7738944 -0.35385475 10
1.3407524 1.7510962 0.27079368 3
1.3431659 1.7542485 -0.27128115 8
2.9013534 3.7893271 0.75589132 1
1.3505257 1.7638609 -0.19435731 9
6.5810795 8.5952511 2.1042416 1
1.3453273 1.7570714 -0.11597648 9
6.5892911 8.6059771 2.5023556 1
1.3591251 1.7750921 -0.039023582 9
6.5721169 8.5835457 2.8967028 1
0.92258656 1.1962745 -0.40479299 10
1.3604282 1.7640032 0.038883962 11
1.0579917 1.371848 -0.39996296 6
1.3441341 1.7428753 0.11534845 10
1.2433171 1.6121508 -0.39573786 6
1.363975 1.7686021 0.19540317 1
1.3583601 1.7613214 -0.35229042 26
1.3517058 1.7526932 0.27176863 12
1.356555 1.7589809 -0.27274358 23
1.4295353 1.853611 0.37074968 4
1.3615415 1.7654468 -0.19505455 20
1.4327521 1.8577822 0.4560335 2
1.3526721 1.7539462 -0.11608115 19
1.4281104 1.8517634 0.53988254 1
1.3579859 1.7608361 -0.038814154 19
1.4452283 1.8739594 0.63410664 2
0.92675674 1.1930468 -0.40479299 10
1.3616705 1.7529267 0.038744342 27
1.060383 1.3650687 -0.39906317 5
1.3649125 1.7571002 0.11660451 18
1.2417108 1.5984983 -0.39344814 6
1.35914 1.7496692 0.19383438 8
1.370559 1.7643692 -0.35385475 11
1.3578156 1.7479641 0.27176863 18
1.3614689 1.7526672 -0.27249986 11
6.6795058 8.5987654 1.7245336 1
1.35914 1.7496692 -0.19383438 15
2.918201 3.7567036 0.92466038 1
1.3649125 1.7571002 -0.11660451 14
2.8786948 3.7058458 1.0833642 1
1.3604438 1.7513475 -0.038709439 24
2.8667831 3.6905117 1.2521665 3
0.92356694 1.1808368 -0.40168715 10
1.3625481 1.7421011 0.038604721 18
1.0721073 1.3707548 -0.40176257 6
1.3670404 1.7478447 0.11629049 27
1.2373286 1.5820004 -0.39039519 6
1.3637073 1.7435832 0.19366007 23
1.4043928 1.7956022 -0.36105075 19
1.3684964 1.7497064 0.27274358 24
1.3684964 1.7497064 -0.27274358 8
6.7420592 8.6201353 1.7332939 1
1.3686171 1.7498606 -0.19435731 9
6.7381802 8.6151752 2.1259937 1
1.3695012 1.7509911 -0.11649984 8
1.4646931 1.8726997 0.54888058 2
1.3724037 1.7547022 -0.038883962 9
2.8623433 3.6596811 1.2449197 3
0.93246508 1.1836759 -0.40375772 10
1.3698584 1.7389052 0.038639627 9
1.0696501 1.3578193 -0.39906317 5
1.3718972 1.7414933 0.11618582 8
1.2270497 1.557623 -0.38543418 4
1.3710182 1.7403774 0.19383438 10
1.4204314 1.8031027 -0.3635537 27
1.3721389 1.7418001 0.27225611 13
1.8155965 2.3047273 -0.36024576 3
6.7818871 8.6089621 1.7357968 1
2.357362 2.9924474 -0.33328357 1
6.7718563 8.5962286 2.1271386 1
2.9662642 3.7653909 -0.2512126 16
1.4663974 1.8614523 0.54708099 1
2.9983439 3.806113 -0.084574364 24
6.720921 8.5315714 2.9101613 1
0.93899268 1.1834404 -0.40479299 10
1.4107219 1.7779748 0.039616961 1
1.0695382 1.347971 -0.39726356 6
1.354381 1.7069666 0.11419705 6
1.2495632 1.5748616 -0.39077681 3
1.3931838 1.7558712 0.19610041 2
1.4365392 1.8105131 -0.36605665 34
1.374509 1.7323346 0.27152491 12
1.8137596 2.2859354 -0.35829586 3
2.9234185 3.6844716 0.74494094 1
2.3653166 2.9810789 -0.33293495 1
6.7969403 8.5663862 2.1256123 1
2.9570444 3.7268512 -0.24932849 30
1.4825763 1.868535 0.55068016 1
3.0078826 3.7909243 -0.084469646 31
6.706233 8.4520655 2.8910086 3
0.95517826 1.1952471 -0.40996936 10
1.4780905 1.8495849 0.041327298 2
1.0766702 1.3472741 -0.39816338 5
1.3553437 1.6959876 0.11377837 2
1.2501503 1.5643556 -0.38925034 3
6.7427821 8.4374723 0.94494253 4
1.4514828 1.8162897 -0.36824673 35
1.3904618 1.7399321 0.27347481 12
1.8192494 2.2764888 -0.35780838 2
6.7135701 8.400919 1.7032585 2
2.3956094 2.9977074 -0.33572391 1
6.7152681 8.4030437 2.0908849 6
2.928889 3.6650183 -0.24587432 9
1.4744906 1.8450804 0.54528135 1
3.0460649 3.8116446 -0.085167743 38
6.7055445 8.3908758 2.8780677 1
0.94723171 1.1768563 -0.40479299 10
4.2780766 5.3151531 0.11909522 8
1.0935853 1.3586884 -0.4026624 5
1.371274 1.7036934 0.11461575 1
1.2531413 1.5569234 -0.3884871 4
1.4652454 1.8204451 -0.37012395 33
1.4052395 1.7458928 0.27518097 12
1.8346528 2.279403 -0.35927081 2
6.792397 8.4389858 1.7157732 1
2.4060585 2.989327 -0.33572391 1
6.7950296 8.4422569 2.1065314 1
2.9015906 3.604984 -0.24252482 1
2.9056377 3.6100123 1.0698673 1
3.0656207 3.8087776 -0.085342266 26
6.729948 8.3613987 2.8759973 1
0.94890088 1.1705413 -0.40375772 10
4.2978635 5.3017406 0.11913013 21
1.088504 1.3427523 -0.39906317 5
1.3847589 1.7082053 0.11524378 2
1.2560958 1.5494895 -0.38772389 3
1.4691031 1.8122503 -0.36949819 31
1.4238259 1.7563974 0.27761838 14
1.8475986 2.2791531 -0.36024576 2
6.7894707 8.3753281 1.7076386 1
2.3888762 2.9468601 -0.33188906 1
6.7107162 8.2781782 2.0714223 9
2.8764248 3.5482886 -0.23938467 1
2.9133127 3.5937924 1.0680676 1
3.0889711 3.8104806 -0.085621506 26
6.6739359 8.2328072 2.8397624 5
0.95542455 1.1702148 -0.40479299 10
4.4124589 5.4044294 0.12178289 19
1.0956494 1.3419635 -0.39996296 5
1.4096603 1.7265677 0.11681385 2
1.26398 1.5481369 -0.3884871 3
1.489387 1.824218 0.20603618 7
1.4766694 1.8086413 -0.36981109 28
1.4286928 1.7498789 0.27737463 16
1.8417331 2.2557755 -0.35756466 2
1.5228934 1.8652569 0.38138723 6
2.4117486 2.9539368 -0.33363217 1
6.7209473 8.2318916 2.0656981 16
1.471554 1.8023759 -0.12194278 3
6.8006668 8.3295336 2.4825599 1
3.0959301 3.79193 -0.085446984 23
6.6757541 8.1765385 2.8283746 5
0.96195751 1.1698569 -0.40582827 10
4.4706697 5.4368758 0.12286494 19
1.0879499 1.3230788 -0.39546394 6
4.3662777 5.3099222 0.36028072 6
1.2793518 1.5558468 -0.39154005 4
1.4337393 1.7436007 0.19749491 5
1.4867376 1.808053 -0.37074968 29
1.4335315 1.7433479 0.27713087 15
1.436053 1.7464145 -0.27761838 4
6.9870396 8.4970865 1.742367 13
1.4653752 1.7820737 -0.20185269 7
6.730937 8.1856346 2.059974 14
1.5322888 1.8634489 0.55697882 5
3.1396294 3.8181696 -0.086284697 33
1.5509112 1.8860958 0.65429455 9
0.96110648 1.1605405 -0.40375772 10
4.4819679 5.4119964 0.12265551 27
1.0950475 1.3222748 -0.39636377 6
4.383512 5.2931104 0.36017606 4
1.2747573 1.5392751 -0.3884871 4
1.4537957 1.7554648 0.19941235 10
1.4867401 1.7952454 -0.36918533 19
1.4408743 1.7398622 0.27737463 17
1.8536379 2.2382762 -0.35683343 2
7.0103579 8.4650383 1.7408028 24
2.4526448 2.9615796 -0.33642116 1
6.7331724 8.1303358 2.05196 22
3.1096056 3.7548628 -0.25550413 20
6.9667892 8.4124298 2.5217013 21
3.1593153 3.8148875 -0.086459219 35
6.6969409 8.086586 2.8133631 4
0.96762639 1.1601455 -0.40479299 10
4.486743 5.379426 0.12227156 3
1.109642 1.3304166 -0.39996296 5
1.3598621 1.6304204 0.11126624 1
1.2725776 1.5257699 -0.38619742 3
1.4509815 1.7396691 0.19819216 10
1.5119765 1.8127996 -0.37387836 20
1.4698254 1.7622621 0.28176191 17
1.8817834 2.2561834 -0.36073327 2
6.9968448 8.3889389 1.7301651 11
2.4425495 2.9285195 -0.33363217 1
6.7451644 8.087184 2.046999 21
6.9486804 8.3311911 2.5046051 10
3.1751742 3.8069077 -0.086529031 35
6.7090416 8.0438738 2.8066337 9
0.96918511 1.1538024 -0.40375772 10
3.6926265 4.3960242 0.10021172 1
1.116786 1.3295194 -0.40086278 6
6.9407711 8.2628984 0.56554234 26
1.2753702 1.518312 -0.38543418 3
1.4608897 1.7391704 0.19871509 8
1.5144835 1.802973 -0.37293977 20
1.4823518 1.7647207 0.28298062 18
1.8487902 2.2009609 -0.35293362 2
6.9739928 8.3024492 1.7173376 12
2.4604459 2.9291291 -0.33467805 1
6.7506232 8.0365305 2.0401297 11
3.1742818 3.7789419 -0.25864428 33
7.0002809 8.333744 2.5127032 22
3.2013054 3.8111129 -0.086878076 33
6.7793255 8.0706997 2.8242335 16
0.97071129 1.1474625 -0.40272245 10
4.472528 5.2869043 0.12087537 9
1.1189029 1.3226374 -0.39996296 5
6.961832 8.2294712 0.56491429 2
1.3009502 1.5378326 -0.39154005 3
1.4708121 1.7386236 0.19923803 1
1.5182161 1.7946593 -0.37231404 22
1.4897848 1.7610512 0.28322434 18
1.6795337 1.9853503 -0.31929767 3
7.0271721 8.3067083 1.7232821 13
2.4500666 2.8961849 -0.33188906 1
6.7900467 8.0264072 2.0435643 1
3.1590748 3.7342923 -0.25634152 7
7.0091906 8.2854538 2.5055048 21
3.2081316 3.7922814 -0.086703554 21
6.8735843 8.1251554 2.8516684 28
0.98473352 1.1558312 -0.40686354 10
1.5678791 1.8402985 0.042199917 1
1.1184578 1.3127902 -0.39816338 6
6.971087 8.1823158 0.56334424 4
1.2948514 1.5198323 -0.38810548 3
1.4807483 1.7380288 0.19976096 2
1.5347199 1.801378 -0.37481698 18
1.495923 1.7558401 0.28322434 16
1.6233726 1.905434 -0.30735448 9
7.0253792 8.2460413 1.7157732 9
2.480835 2.9118807 -0.33467805 1
2.947474 3.4595983 0.88344562 1
3.1733859 3.7247627 -0.25644618 13
6.9129539 8.1140814 2.4609644 17
3.2524736 3.8175919 -0.087541267 21
6.8843646 8.0805254 2.8444214 27
0.98624617 1.1494546 -0.40582827 10
1.5912212 1.8545436 0.04265368 2
1.1255714 1.311836 -0.39906317 5
1.3837943 1.6127907 0.11137091 2
1.2988703 1.5138131 -0.38772389 4
1.5023748 1.7509944 0.20185269 8
1.542285 1.7975091 -0.37512985 11
1.5110914 1.7611535 0.28493053 18
1.6662077 1.9419391 -0.31417918 5
1.3158945 1.5336546 0.3200649 6
2.4987683 2.9122758 -0.33572391 1
6.8829899 8.0220175 2.0546312 1
3.2500958 3.787936 -0.2615751 9
7.0110283 8.1712446 2.4857092 10
3.277499 3.819874 -0.087855414 33
6.8986917 8.0403175 2.8387272 26
0.98772639 1.1430814 -0.40479299 10
1.5911479 1.8414124 0.042479157 2
1.1352402 1.3137971 -0.40086278 5
1.3894155 1.6079506 0.11137091 1
1.3067138 1.512241 -0.3884871 3
1.4993591 1.7351867 0.20063251 5
1.5653399 1.8115453 -0.37919715 11
1.5289108 1.7693863 0.28712419 19
1.7482536 2.0232286 -0.328316 3
1.3070331 1.5126104 0.31662336 10
2.5245509 2.9216261 -0.33781567 1
6.9083829 7.9949718 2.0538681 6
3.3181436 3.8400397 -0.26597133 30
7.0229449 8.127553 2.4798603 14
3.290813 3.8084102 -0.087855414 26
6.8989277 7.9840293 2.8273392 16
0.9889757 1.1368847 -0.40375772 10
3.8231521 4.3949342 0.10167772 1
1.1344746 1.3041441 -0.39906317 5
6.985498 8.0302334 0.5577966 7
1.3168755 1.5138245 -0.39001358 3
7.0600014 8.1158791 0.94110769 24
1.5661527 1.800383 -0.37794566 9
1.5360726 1.7658042 0.28736791 20
1.9256279 2.2136204 -0.36024576 2
1.3250067 1.5231717 0.31975204 14
2.4976113 2.8711483 -0.33293495 1
1.6235452 1.8663589 0.48083866 3
3.3439679 3.8440843 -0.26701805 18
7.0345101 8.0865755 2.4744616 10
3.3165483 3.8125639 -0.088204466 35
6.889864 7.9202967 2.8128455 19
0.99548417 1.1363318 -0.40479299 10
3.8279283 4.3695288 0.10139848 2
1.1390201 1.3001761 -0.39906317 6
6.9990091 7.989275 0.55664521 2
1.3118021 1.4974046 -0.38696066 4
7.0672822 8.0672073 0.93831873 28
1.571126 1.7934192 -0.3776328 8
1.5526917 1.7723768 0.28931782 19
1.9398836 2.2143512 -0.36146447 1
1.3199021 1.5066504 0.31724909 14
2.5653853 2.9283528 -0.34060463 1
6.969111 7.9551463 2.0557761 6
3.3376245 3.8098536 -0.26544797 12
7.0331597 8.0282574 2.464114 11
3.3351073 3.8069801 -0.088344082 26
6.9060121 7.8831201 2.8081865 24
1.0069138 1.1417177 -0.40789881 10
3.8503332 4.3658094 0.10160791 2
1.1407474 1.2934687 -0.39816338 5
7.0016847 7.9390588 0.55476111 4
1.3206563 1.4974636 -0.38810548 5
7.0755453 8.0228071 0.93587834 24
1.5770645 1.7881993 -0.3776328 8
1.5533085 1.7612629 0.28834286 19
1.9051992 2.160264 -0.35366485 2
1.3170514 1.4933761 0.31537187 15
1.5656077 1.7752086 -0.20708205 3
7.0045428 7.9422994 2.0584474 4
7.0288086 7.9698138 2.4533162 9
3.3715217 3.8228955 -0.088972367 80
6.9282823 7.8558292 2.8066337 19
1.0008267 1.126466 -0.40375772 10
1.6695123 1.8790954 0.043875352 1
1.1454805 1.289279 -0.39816338 6
1.3782895 1.5513138 0.10875412 1
1.3417835 1.5102251 -0.39268491 4
7.0784364 7.9670315 0.93239212 16
1.5914801 1.7912674 -0.37951002 9
1.5676643 1.7644619 0.28980529 19
1.578212 1.7763337 -0.2917552 4
1.319892 1.4855853 0.31474614 20
2.5381269 2.8567519 -0.33432943 1
7.0323019 7.9151053 2.0580659 8
3.3548548 3.7760084 -0.26471525 80
7.0372629 7.9206891 2.4461179 9
3.402777 3.8299463 -0.08942613 20
7.028883 7.9112573 2.8356214 12
1.0045567 1.1231409 -0.40375772 10
3.8727195 4.3298802 0.10139848 1
1.1523479 1.2883784 -0.39906317 5
1.3727742 1.5348253 0.10791674 1
1.3336959 1.4911339 -0.38886872 4
7.0862212 7.9227242 0.92995179 20
1.5960946 1.7845078 -0.37919715 10
1.5840939 1.7710904 0.2917552 18
1.6740842 1.8717037 -0.30832943 9
1.3221773 1.4782555 0.31412041 22
2.5502427 2.8512895 -0.33467805 1
7.0493488 7.8814988 2.0553944 9
3.3766785 3.7752831 -0.26544797 24
7.0362077 7.8668065 2.4366698 11
3.3847969 3.7843599 -0.088623323 66
7.044776 7.8763857 2.8314803 9
1.0112528 1.1223218 -0.40479299 10
3.8430519 4.2651463 0.10021172 1
1.1596713 1.2870417 -0.39996296 6
4.3103113 4.7837267 0.33746225 2
1.3260105 1.4716504 -0.38505256 5
7.0805364 7.8582139 0.92541969 15
1.5880791 1.7625029 -0.37575558 20
1.6051915 1.7814947 0.29443634 18
1.8829108 2.0897169 -0.34537771 3
1.324942 1.4704646 0.31349468 23
2.5766804 2.8596854 -0.33676979 1
7.0571613 7.8322721 2.0492885 9
3.3904929 3.7628818 -0.26544797 12
6.9697676 7.7352796 2.403827 26
7.0464406 7.8203735 2.82061 12
1.0123731 1.1161005 -0.40375772 10
1.6874298 1.8603232 0.043840446 4
1.1534587 1.2716417 -0.39636377 6
1.4411558 1.588816 0.11241763 1
1.3533065 1.4919658 -0.39154005 3
7.0931702 7.8199334 0.92367655 13
1.5978965 1.7616163 -0.3766942 12
1.6044219 1.7688103 0.29321763 18
1.9925239 2.1966772 -0.36414561 3
1.3245022 1.4602102 0.31224319 23
2.5781176 2.8422706 -0.33572391 1
7.0646296 7.7884684 2.043946 17
2.9373276 3.2382851 -0.22912681 1
7.0490603 7.7713041 2.4222729 13
3.5992234 3.9679983 -0.093509994 2
7.0515685 7.7740693 2.8123279 11
1.0216696 1.1180871 -0.40582827 10
1.7171685 1.8792217 0.044433828 1
1.16337 1.27316 -0.39816338 6
1.3823004 1.5127512 0.10739338 1
1.3508197 1.4782997 -0.38925034 3
7.0895286 7.7585835 0.91949308 11
1.616335 1.7688723 -0.37951002 5
1.606877 1.7585217 0.29248643 17
1.9911883 2.1791015 -0.36243942 4
1.3231827 1.4480546 0.31067884 23
2.5912058 2.8357439 -0.33607253 1
7.0772362 7.745131 2.0393665 9
3.4638345 3.7907248 -0.26911148 2
7.0617218 7.7281528 2.4168742 11
4.1937761 4.5895524 -0.10851906 15
7.0565577 7.7225013 2.8030102 13
1.0253718 1.1146929 -0.40582827 10
1.7369288 1.8882344 0.044782873 1
1.1728628 1.2750319 -0.39996296 6
7.024436 7.6363416 0.54377061 4
1.3424232 1.459363 -0.38543418 4
7.1111712 7.7306323 0.91897017 13
1.6275413 1.769318 -0.38076147 3
1.6288265 1.7707152 0.29541129 18
1.991684 2.1651814 -0.36122075 3
1.3212907 1.4363896 0.30911452 24
2.63027 2.8593955 -0.33990741 1
7.0882607 7.7057257 2.0351686 29
1.649627 1.7933276 -0.12769973 2
7.0332189 7.6458893 2.3984282 8
4.2698936 4.6418481 -0.11008978 25
1.738162 1.889575 0.68794101 6
1.0294504 1.1109272 -0.40582827 10
1.7655848 1.9053236 0.04534135 1
1.1775281 1.2707247 -0.39996296 5
7.0347295 7.5914998 0.54240984 2
1.3504319 1.4573131 -0.38619742 3
7.0934143 7.654829 0.91304356 13
1.6273019 1.7560962 -0.37919715 3
1.6339563 1.7632773 0.29516754 18
1.9888122 2.1462185 -0.35927081 2
1.3158052 1.4199458 0.30661154 23
2.619065 2.8263533 -0.33711842 1
7.0964394 7.6580935 2.0294445 34
3.5268676 3.8060048 -0.27193764 18
6.9856954 7.5385847 2.3727837 19
4.5084257 4.8652492 -0.11577927 16
7.0013132 7.5554385 2.7600462 15
1.0278577 1.1018568 -0.40375772 10
1.7473407 1.8731378 0.044713065 1
1.1843941 1.2696629 -0.40086278 5
1.3800933 1.4794511 0.10603265 1
1.3632922 1.4614404 -0.3884871 4
7.1010919 7.6123242 0.91077751 15
1.6317689 1.7492458 -0.37888429 3
1.6479191 1.7665586 0.29663 15
1.9932103 2.1367085 -0.35878333 2
1.3218541 1.4170191 0.30692443 24
2.5876515 2.7739456 -0.33188906 1
7.0923333 7.6029358 2.0210488 39
6.9840703 7.4868779 2.3637857 29
2.9640682 3.1774619 -0.075848155 4
7.0316005 7.5378304 2.7621169 22
1.0394405 1.1068918 -0.40686354 10
3.7165246 3.9576967 0.094766565 2
1.1885979 1.2657282 -0.40086278 5
4.3122053 4.5920324 0.33013523 4
1.3761947 1.4654984 -0.39077681 4
7.1126571 7.5742106 0.90903437 15
1.6402652 1.7467049 -0.37951002 3
1.6469737 1.7538489 0.29541129 17
1.7869393 1.9028971 -0.32051638 6
1.3265458 1.4126278 0.30692443 25
2.6295691 2.8002067 -0.33607253 1
7.0933156 7.5536141 2.0141797 24
3.5506649 3.781074 -0.27183294 34
6.9848471 7.4381065 2.3556874 45
3.5727916 3.8046367 -0.091101564 62
7.0790401 7.5384116 2.7709167 26
1.0351428 1.0950155 -0.40375772 10
1.7707149 1.8731333 0.044992305 1
1.1874338 1.2561152 -0.39906317 6
4.3219213 4.5719018 0.32971653 4
1.3756522 1.45522 -0.38925034 4
7.1281543 7.5404472 0.9078142 16
1.6487625 1.744127 -0.38013574 3
1.6500533 1.7454926 0.29492381 18
1.8573327 1.964761 -0.33197209 3
1.331223 1.4082211 0.30692443 25
2.6744266 2.8291156 -0.34060463 1
7.0953979 7.5057964 2.0076923 22
3.5590677 3.7649248 -0.27151895 42
6.9679742 7.3710032 2.3417404 42
7.0907283 7.5008569 2.7657404 27
1.0471427 1.0996082 -0.40686354 10
3.8019831 3.9924755 0.096232571 8
1.1920298 1.2517546 -0.39906317 6
4.3455358 4.563262 0.33023989 4
1.3863921 1.4558551 -0.39077681 3
7.1378813 7.4955139 0.90554816 24
1.671491 1.7552385 -0.38389018 4
1.6646534 1.7480583 0.29638624 16
1.7235187 1.8098729 -0.306867 1
1.3254774 1.3918884 0.30442145 25
7.099844 7.4555707 2.0012047 21
3.564579 3.7431767 -0.27089092 4
6.978817 7.3284798 2.3363416 16
4.5108037 4.7368107 -0.11417364 12
7.0968566 7.4524336 2.7574582 9
1.0507834 1.0961297 -0.40686354 10
1.7934353 1.8708307 0.045236636 4
1.2096598 1.2618624 -0.40356219 5
1.395959 1.4562012 0.10571864 1
1.3898537 1.4498324 -0.39039519 3
7.1337442 7.4415989 0.90188766 30
1.6622654 1.7340001 -0.38044861 3
1.6690674 1.7410955 0.29614252 15
1.9809014 2.0663867 -0.35147119 2
1.3246177 1.3817813 0.30317 25
7.1068668 7.4135618 1.9962437 17
3.5755899 3.7298937 -0.27078623 2
6.9868979 7.2884159 2.3309429 24
4.5181842 4.7131653 -0.11396421 9
7.0974669 7.4037566 2.7481406 12
1.0413741 1.0783744 -0.40168715 10
4.4368019 4.5944428 0.11148597 22
1.2088618 1.2518131 -0.40176257 5
1.384638 1.4338346 0.10446257 1
1.3842479 1.4334307 -0.38734227 2
7.1277542 7.3810058 0.89770412 28
1.6658653 1.725054 -0.37982288 3
1.6754376 1.7349664 0.29614252 14
2.0381043 2.1105189 -0.36024576 2
1.3283012 1.3754961 0.30285713 25
7.1148982 7.3676925 1.9909011 11
3.0453711 3.153574 -0.22975485 1
6.987844 7.2361245 2.3223946 14
4.4965334 4.6562967 -0.11298688 6
1.8385084 1.9038311 0.7091642 8
1.0530238 1.0832264 -0.40479299 10
4.4255295 4.5524616 0.11082278 34
1.2048563 1.2394136 -0.39906317 5
7.141829 7.3466692 0.53696692 4
1.3903623 1.4302402 -0.38772389 4
7.129971 7.3344707 0.89491516 15
1.6674459 1.7152711 -0.37888429 3
1.6811818 1.7294009 0.29614252 13
2.0533941 2.112289 -0.36170822 2
1.3342321 1.3725002 0.30317 26
1.4304383 1.4714657 -0.17954083 1
7.1064477 7.3102732 1.9817423 11
3.0307529 3.1176801 -0.22787075 49
7.0158763 7.217104 2.3237443 26
3.8874967 3.998997 -0.097349524 2
7.1045446 7.3083153 2.7310586 11
1.0598792 1.0819352 -0.40582827 10
7.1815305 7.3309774 0.17913149 18
1.2123338 1.2375623 -0.39996296 5
7.1657925 7.3149118 0.53665292 2
1.4205732 1.4501352 -0.394593 4
7.1664462 7.3155794 0.89596105 5
1.6836962 1.7187337 -0.38107437 3
1.6794749 1.7144246 0.29468006 12
2.0781591 2.1214054 -0.36463308 2
1.3394922 1.367367 0.30317 26
1.4444432 1.474502 -0.1805867 1
7.1344647 7.2829323 1.9817423 9
7.00808 7.1539178 2.312047 22
4.4891562 4.5825753 -0.11197464 9
7.1217389 7.2699418 2.7269175 9
1.066174 1.0811656 -0.40686354 10
3.0103738 3.0527027 0.074835919 6
1.216431 1.2335353 -0.39996296 5
1.396772 1.4164121 0.10425323 1
1.4102106 1.4300396 -0.39039519 3
7.1836715 7.2846813 0.89508951 3
1.6699682 1.6934496 -0.3766942 3
1.6879386 1.7116727 0.29516754 12
2.0670626 2.0961277 -0.36146447 1
1.3384712 1.3572915 0.30191851 26
1.4381332 1.4583548 -0.1791922 1
7.1282496 7.2284803 1.9733466 8
1.8076699 1.8330876 -0.1349221 1
7.009872 7.1084375 2.3048484 19
7.1363125 7.2366567 2.723294 4
1.0674065 1.0745095 -0.40582827 10
1.2319311 1.2401288 -0.40356219 6
1.4047692 1.4141171 0.10446257 1
1.4016063 1.4109331 -0.38657904 3
1.4153857 1.4248041 0.17570598 2
1.4074764 1.4168422 -0.3163105 4
1.6914028 1.7026579 0.29468006 12
1.4171969 1.4266274 -0.24690729 1
1.3309075 1.3397638 0.29910269 26
1.39994 1.4092556 -0.17378855 2
7.135325 7.1828055 1.968004 9
7.0235181 7.0702548 2.3007994 17
7.1042442 7.1515183 2.7010355 11
1.0682318 1.0682318 -0.40479299 10
1.4465201 1.4465201 0.035707623 1
1.2415485 1.2415485 -0.4053618 6
1.4066263 1.4066263 0.10425323 9
1.4409832 1.4409832 -0.39611948 1
1.4046055 1.4046055 0.17378855 2
1.3995959 1.3995959 -0.31349468 13
1.6815994 1.6815994 0.29199895 7
1.4036722 1.4036722 -0.24373868 12
1.3367398 1.3367398 0.29941556 26
1.3961526 1.3961526 -0.17274268 9
7.1466103 7.1466103 1.9645694 14
1.4094509 1.4094509 -0.10446257 9
7.0414133 7.0414133 2.2989998 14
1.4012722 1.4012722 -0.034590669 6
6.99405 6.99405 2.6503069 16
1.074882 1.0670315 -0.40582827 10
1.3936261 1.3834476 0.034276526 12
1.2405587 1.2314981 -0.40356219 6
1.4202771 1.4099039 0.10488126 16
1.4239621 1.4135619 -0.39001358 1
1.3927764 1.3826041 0.17169681 2
1.4005104 1.3902817 -0.31255606 14
1.4003546 1.3901269 0.24227625 10
1.4102163 1.3999166 -0.24398242 15
1.3402282 1.3304397 0.29910269 24
1.4012604 1.391026 -0.17274268 14
7.1393166 7.0871735 1.9554106 9
1.4004329 1.3902047 -0.10341585 17
7.0505781 6.999083 2.293601 13
1.4120754 1.4017621 -0.034730289 15
7.0744786 7.022809 2.6710126 17
1.0839167 1.068887 -0.40789881 10
1.408173 1.3886472 0.034520861 19
1.252961 1.2355874 -0.40626159 6
1.4078795 1.3883578 0.10362519 19
1.4593953 1.4391593 -0.39840919 1
1.4030281 1.3835738 0.17239405 1
1.399487 1.3800817 -0.3113046 23
1.3936493 1.3743249 0.24032634 19
1.3950627 1.3757187 -0.24057008 23
1.3558849 1.3370842 0.30160564 24
1.4087027 1.3891696 -0.17309131 23
7.1557899 7.0565672 1.9535025 19
1.4036132 1.3841506 -0.10331118 23
7.0834618 6.9852419 2.2967503 9
1.416716 1.3970717 -0.034730289 24
7.1472473 7.0481429 2.6896474 11
1.087827 1.0649071 -0.40789881 10
1.4032505 1.3736846 0.034276526 27
1.2407706 1.2146281 -0.40086278 6
1.4072497 1.3775996 0.10320651 24
1.4646603 1.4338007 -0.39840919 1
1.4080898 1.378422 0.17239405 7
1.4031243 1.3735611 -0.3109917 8
1.4015142 1.371985 0.24081382 21
1.4057698 1.376151 -0.24154504 10
1.3621881 1.3334875 0.30191851 22
1.4166323 1.3867846 -0.17343993 18
7.1591587 7.0083189 1.9473966 32
1.4086769 1.3789968 -0.10331118 17
7.1466155 6.9960399 2.3088977 11
1.4046794 1.3750834 -0.034311432 31
7.1468024 6.996223 2.6798124 8
1.0858126 1.0559065 -0.40582827 10
1.4235677 1.384359 0.034660481 29
1.2503799 1.2159413 -0.4026624 6
1.4118103 1.3729254 0.10320651 42
1.43422 1.3947179 -0.38886872 3
1.408368 1.369578 0.17187113 24
1.4388272 1.3991983 -0.31787482 3
1.4003636 1.3617941 0.23983887 27
1.4117486 1.3728656 -0.24178877 6
1.3581055 1.3206999 0.30004132 22
1.4255084 1.3862463 -0.17396286 8
7.1696925 6.9722209 1.9439621 39
1.4189695 1.3798876 -0.10372987 8
7.1516142 6.9546409 2.3030488 14
1.4264349 1.3871473 -0.034730289 10
7.1616535 6.9644041 2.6767066 8
1.0894917 1.05211 -0.40582827 8
1.4197605 1.3710468 0.034451049 9
1.2490095 1.2061543 -0.40086278 6
1.416594 1.3679889 0.10320651 9
1.4390796 1.3897032 -0.38886872 2
1.4174397 1.3688056 0.17239405 10
1.7179492 1.6590042 -0.37825853 2
1.4151043 1.3665503 0.24154504 16
2.006278 1.9374402 -0.34245285 4
1.3754961 1.3283012 0.30285713 22
2.8004825 2.7043946 -0.34060463 1
7.1615047 6.9157844 1.9351848 21
3.2383397 3.1272283 -0.23593049 5
7.1632304 6.9174514 2.2989998 11
1.4327066 1.3835487 -0.034765195 2
7.1456203 6.9004455 2.661695 11
1.0901865 1.0458165 -0.40479299 10
7.2614732 6.9659352 0.17564102 14
1.241752 1.1912135 -0.39726356 5
7.2785692 6.982336 0.52859318 7
1.4422635 1.3835642 -0.3884871 3
1.4464134 1.3875453 0.17535736 8
1.7277178 1.6574007 -0.37919715 3
1.4296558 1.3714697 0.2432512 10
1.9969341 1.91566 -0.33977172 6
1.3941485 1.3374075 0.30598581 20
2.8813245 2.7640564 -0.3493202 1
7.1730647 6.8811255 1.9321319 27
3.2674291 3.1344466 -0.23729123 1
7.1664419 6.8747721 2.2927012 13
4.232492 4.0602322 -0.10237581 28
7.160099 6.8686876 2.6585891 9
1.096628 1.0446696 -0.40582827 10
7.2828488 6.9377871 0.1755712 16
1.2543685 1.1949365 -0.39996296 5
7.2739754 6.9293346 0.52649975 21
1.4584562 1.3893545 -0.39154005 4
1.4757721 1.4058501 0.17832065 6
1.7463651 1.6636223 -0.38201296 3
1.7003366 1.6197746 0.28834286 12
1.967676 1.8744476 -0.33367828 13
1.4131111 1.3461579 0.30911452 18
1.8522887 1.7645273 -0.22381595 5
7.1714535 6.8316703 1.9252628 16
3.7815995 3.6024275 -0.27371705 2
7.1776967 6.8376174 2.2886519 24
4.2336082 4.03302 -0.10206167 37
7.1574554 6.8183351 2.6487541 11
1.1056988 1.0463387 -0.40789881 10
4.3065095 4.0753117 0.10349277 1
1.2696477 1.2014859 -0.40356219 5
7.2751541 6.884583 0.52492964 23
1.4530736 1.3750645 -0.38886872 3
1.4948974 1.4146429 0.18006377 3
1.7346548 1.6415288 -0.37825853 2
1.7374191 1.6441448 0.29370511 12
1.994067 1.8870143 -0.33709061 12
1.4161326 1.3401067 0.30880162 17
2.8045607 2.6539962 -0.33781567 1
7.1940689 6.8078513 1.9252628 30
3.8254399 3.620069 -0.27601984 2
7.1578689 6.7735944 2.2751551 9
4.2295294 4.0024648 -0.10164282 23
2.0345981 1.9253695 0.75057524 7
1.1040752 1.0367956 -0.40582827 8
3.0233014 2.8390689 0.072392583 2
1.2742517 1.196602 -0.40356219 5
7.2869759 6.8429255 0.52388293 30
1.4626361 1.3735068 -0.39001358 3
1.5119374 1.4198036 0.18145825 1
1.7524649 1.6456741 -0.38076147 2
1.7393781 1.6333848 0.29297391 10
2.0215569 1.8983682 -0.34050295 7
1.4356676 1.3481817 0.31193033 20
2.8321593 2.6595745 -0.33990741 1
7.20012 6.7613626 1.9199201 40
3.8596947 3.6244948 -0.27748525 2
7.182404 6.7447262 2.2747052 19
4.2273741 3.9697685 -0.10122396 37
7.1807141 6.7431393 2.6394367 8
1.1103326 1.0357642 -0.40686354 10
3.0019922 2.8003829 0.07165958 27
1.2753627 1.1897112 -0.4026624 4
7.2906418 6.8010125 0.52252221 19
1.4643116 1.3659706 -0.38925034 3
1.506439 1.4052687 0.18023808 3
1.7348012 1.6182944 -0.37575558 2
1.7563976 1.6384405 0.29492381 10
2.0597754 1.9214438 -0.34586519 9
1.4661309 1.3676677 0.31756195 23
2.811825 2.622987 -0.33642116 1
7.196661 6.7133436 1.913051 39
1.9526417 1.8215052 -0.13994634 2
7.179081 6.6969442 2.2666068 13
4.2346659 3.9502721 -0.10108434 40
7.1832585 6.7008414 2.6321898 11
1.1112865 1.0290625 -0.40582827 10
4.2946005 3.9768436 0.10216638 50
1.276855 1.1823807 -0.40176257 5
4.3802261 4.0561337 0.31286433 24
1.4765108 1.367264 -0.39115843 3
1.5232744 1.4105675 0.18163256 7
1.7465184 1.6172937 -0.37700707 2
1.7521954 1.6225507 0.29321763 12
2.0784562 1.9246715 -0.3478151 13
1.475482 1.3663113 0.31850058 22
2.8243437 2.615371 -0.33676979 1
7.1938486 6.6615772 1.9058002 26
3.3280339 3.0817931 -0.23770991 14
7.1949992 6.6626425 2.2639074 13
4.2344437 3.9211378 -0.10073529 33
7.189343 6.6574049 2.6254604 12
1.1232237 1.033219 -0.40893409 10
4.2945189 3.9503961 0.10185225 19
1.2750319 1.1728628 -0.39996296 5
4.3818932 4.0307689 0.31202698 43
1.4969307 1.3769807 -0.39535624 4
1.52941 1.4068573 0.18180688 1
1.7460566 1.6061438 -0.37575558 2
1.7517223 1.6113557 0.29224268 12
2.0921321 1.9244881 -0.3490338 20
1.4945431 1.3747842 0.32162926 19
3.0808153 2.8339474 -0.36622843 3
7.1942263 6.6177478 1.900076 15
3.3338253 3.0666835 -0.2373959 57
7.1869349 6.6110411 2.2544594 6
3.4335546 3.1584215 -0.081432931 4
7.1900535 6.6139092 2.6176958 9
1.1237916 1.0268823 -0.40789881 10
4.3046427 3.9334354 0.10178243 33
1.2760371 1.1659991 -0.39906317 6
4.3716445 3.9946594 0.31035221 33
1.4927928 1.3640631 -0.39306653 3
6.6790004 6.1030421 0.79154843 5
1.7688723 1.616335 -0.37951002 2
1.7570562 1.6055379 0.29224268 8
2.0882444 1.9081663 -0.34732762 9
1.5413834 1.4084634 0.33070245 19
2.9019308 2.6516852 -0.34391657 3
7.2146826 6.5925303 1.8996943 9
3.3631439 3.0731258 -0.23875663 61
7.185801 6.5661392 2.247261 6
3.4174376 3.1227376 -0.080804639 72
7.199111 6.5783014 2.6130371 9
1.1214688 1.0179564 -0.40582827 10
4.2984142 3.9016669 0.10132867 39
1.2885544 1.1696198 -0.40176257 5
3.0109916 2.7330747 0.21311201 12
1.4871322 1.3498687 -0.39039519 3
6.6726475 6.0567565 0.78841084 7
1.7625211 1.599839 -0.37700707 2
1.7403227 1.5796895 0.28858662 7
2.0710428 1.8798838 -0.34342781 12
1.5475082 1.4046719 0.33101532 9
2.9018567 2.6340129 -0.34287068 3
7.2132454 6.5474567 1.8935884 10
3.3969781 3.0834343 -0.24043138 36
2.1225796 1.9266636 0.66180599 6
3.3256073 3.018651 -0.078396209 44
7.1879859 6.524529 2.6011314 11
1.1110151 1.0007136 -0.40065187 10
4.2985053 3.8717504 0.10097963 26
1.2959318 1.1672719 -0.4026624 4
4.4030857 3.9659479 0.31056157 7
1.4937631 1.3454624 -0.39077681 3
6.6810503 6.0177565 0.7866677 7
1.7715867 1.5957037 -0.3776328 2
1.5885526 1.4308413 0.26250657 14
2.0767708 1.8705893 -0.34318408 15
7.2786231 6.5560021 1.551517 5
1.9866984 1.7894592 -0.23392601 1
7.2324977 6.5144563 1.8920619 16
3.4547973 3.1118054 -0.24367622 12
7.2123313 6.4962921 2.2409625 19
3.3668902 3.0326257 -0.079094306 38
7.1928892 6.4787803 2.5938845 13
1.1373626 1.0176342 -0.40893409 10
4.2979088 3.8454742 0.10066548 41
1.2910818 1.1551716 -0.39996296 5
6.6965094 5.9915776 0.47091892 7
1.4996797 1.3418107 -0.39115843 3
6.6831517 5.9796262 0.784576 1
1.7857013 1.5977231 -0.37951002 2
1.5873712 1.420271 0.26153162 18
2.0297048 1.8160409 -0.33440948 14
7.294435 6.5265608 1.5502656 11
2.8953888 2.5905957 -0.33990741 1
7.2394295 6.4773455 1.8882458 22
3.4546783 3.0910096 -0.24294351 26
7.2091451 6.4502492 2.233314 10
3.3963015 3.0387781 -0.079548068 31
7.2100148 6.4510274 2.5923316 9
1.1322428 1.0059592 -0.40582827 10
3.3127091 2.9432294 0.077349067 18
1.2980199 1.1532465 -0.40086278 5
6.6934934 5.9469414 0.46924418 9
1.5219663 1.3522153 -0.39573786 2
3.028038 2.6903086 0.35437524 10
1.7942209 1.5941042 -0.38013574 2
1.5893513 1.4120845 0.26104414 8
2.0909393 1.8577284 -0.34342781 10
7.3112655 6.4958105 1.5490141 16
2.910372 2.5857663 -0.34060463 1
7.2399807 6.432476 1.8825215 21
3.4744055 3.0868909 -0.24357153 47
7.2112217 6.4069247 2.2270155 15
3.4367862 3.0534675 -0.080246165 21
7.2166033 6.4117064 2.5866375 8
1.1413661 1.0073122 -0.40789881 10
2.1739864 1.9186509 0.05061198 7
1.2959926 1.1437777 -0.39906317 5
6.6967053 5.9101744 0.4680928 66
1.5220261 1.3432635 -0.394593 2
6.702785 5.9155402 0.78213561 3
1.7994972 1.5881456 -0.38013574 2
1.5940251 1.4068062 0.26104414 3
2.100065 1.8534114 -0.34391528 7
7.306107 6.4480019 1.5433824 15
2.8950295 2.555007 -0.33781567 3
7.246552 6.3954415 1.8787054 13
3.4951053 3.0846035 -0.24430424 20
7.2134337 6.3662128 2.2211666 16
2.1724873 1.9173276 -0.050577074 3
7.2233415 6.3749571 2.5814612 2
1.1448754 1.003322 -0.40789881 10
3.4063578 2.9851928 0.0790594 31
1.3087708 1.1469532 -0.40176257 4
1.4971756 1.3120635 -0.38696066 4
6.6874313 5.8605914 0.77795213 5
1.8109725 1.5870622 -0.38138723 2
1.6063907 1.4077752 0.26226282 2
2.1214509 1.8591529 -0.34635267 7
7.2929153 6.3912129 1.5358735 17
2.9189146 2.5580175 -0.33955878 3
7.2584963 6.3610497 1.876034 13
3.5569217 3.1171408 -0.24786308 16
7.2238874 6.3307195 2.2175674 9
3.4755378 3.0458193 -0.080665022 34
7.2237568 6.330605 2.5736966 5
1.1423678 0.99444622 -0.40582827 10
3.4298129 2.9856973 0.079373546 33
1.3125671 1.1426069 -0.40176257 5
3.345793 2.9125569 0.23247632 45
1.525211 1.3277162 -0.39306653 4
6.6827846 5.817452 0.77516317 5
1.8162254 1.5810481 -0.38138723 2
1.6020668 1.3946202 0.26080039 4
2.1425772 1.8651415 -0.34879005 12
7.2455325 6.3073316 1.5214816 16
2.9108508 2.5339341 -0.33764136 3
7.2380886 6.3008513 1.8653487 21
3.5853162 3.1210649 -0.24911915 35
2.2385662 1.9487014 0.68520093 7
3.514276 3.0592237 -0.081328213 34
7.2213964 6.2863207 2.5654144 10
1.1489284 0.99277872 -0.40686354 10
3.4452722 2.9770286 0.079478256 28
1.3167461 1.1377884 -0.40176257 4
3.3760917 2.9172504 0.23383705 28
1.5374945 1.3285352 -0.39497462 2
6.707077 5.7955246 0.7755118 10
1.7980932 1.5537162 -0.37638134 2
1.6236898 1.4030157 0.26348153 6
2.155407 1.8624676 -0.349765 10
7.2536545 6.2678175 1.5183529 30
2.9246414 2.5271561 -0.33816427 1
7.2314234 6.2486076 1.8577163 12
3.593709 3.1052916 -0.2489098 31
7.2472644 6.2622957 2.2112689 13
3.5345435 3.0541673 -0.081537642 20
7.2268476 6.2446537 2.5592027 15
1.158078 0.99399614 -0.40893409 10
3.4763689 2.9838209 0.079966925 27
1.314597 1.1283388 -0.39996296 5
3.3933249 2.9125428 0.23436041 31
1.5418917 1.3234293 -0.39497462 2
6.7081165 5.7576795 0.77342004 12
1.8152273 1.5580375 -0.37888429 2
1.6192955 1.3898662 0.2620191 6
2.1495206 1.8449667 -0.3478151 7
7.2519155 6.2244306 1.5136598 6
2.0364735 1.7479365 -0.23479757 2
7.2521048 6.2245932 1.8577163 28
3.5948935 3.0855525 -0.24828178 11
7.228065 6.2039595 2.1991215 10
2.2715514 1.9497076 -0.052252505 3
7.2328568 6.2080722 2.5540264 12
1.1617134 0.9897449 -0.40893409 10
3.5131588 2.9931056 0.080560312 25
1.3187237 1.123513 -0.39996296 5
3.3431644 2.8482757 0.23017353 28
1.5556985 1.3254083 -0.39726433 2
6.721591 5.726594 0.7725485 57
1.8359621 1.5641845 -0.38201296 2
1.6319339 1.3903587 0.26323777 7
2.1139588 1.8010294 -0.34099042 9
7.2761841 6.19909 1.5139728 1
2.8739655 2.4485323 -0.33032027 3
7.2599263 6.1852388 1.8539002 37
4.1382875 3.5256965 -0.28491694 29
7.2077374 6.1407757 2.1860743 6
3.5862226 3.0553541 -0.082235739 49
7.2423272 6.1702452 2.5493677 12
1.1531917 0.97590339 -0.40479299 8
3.5154326 2.9749804 0.080385782 28
1.3283924 1.1241692 -0.40176257 4
2.3112907 1.9559597 0.15868261 5
1.5301123 1.2948773 -0.38963196 3
6.7283773 5.6939764 0.77115399 42
1.8381232 1.5555356 -0.38138723 2
1.6562346 1.4016099 0.26640639 8
2.165379 1.83248 -0.34830257 13
7.2559876 6.1404734 1.5055254 18
2.8151505 2.3823576 -0.32265055 37
7.2669096 6.1497159 1.8504657 51
4.1469069 3.5093737 -0.28470761 40
7.0897179 5.9997654 2.1442335 1
3.6039672 3.0499039 -0.082410261 54
7.2391539 6.1262274 2.5410855 15
1.1656363 0.97912544 -0.40789881 10
3.342571 2.8077338 0.076197207 41
1.3384725 1.1243066 -0.40356219 4
3.3843782 2.8428514 0.23163894 21
1.5468743 1.2993624 -0.39268491 3
6.7125874 5.6385217 0.76697052 10
1.8226364 1.5310005 -0.37700707 2
1.6735207 1.4057444 0.26835629 8
2.194881 1.843683 -0.35195866 21
7.2739072 6.1100259 1.5045867 13
2.8162355 2.3656161 -0.32177901 37
7.2518187 6.0914717 1.8409252 22
4.1444488 3.4813049 -0.28366089 27
2.3277781 1.9553157 0.70184731 1
4.1985021 3.5267091 -0.095708996 26
7.2467666 6.0872278 2.5359089 11
1.1629434 0.97030413 -0.40582827 8
3.3610761 2.8043206 0.076406635 42
1.3362081 1.1148679 -0.40176257 5
3.4075887 2.8431287 0.23258099 15
1.5511745 1.2942257 -0.39268491 3
6.7343082 5.618784 0.76731914 5
1.8368039 1.532541 -0.37888429 2
1.6720762 1.3951001 0.26738134 8
2.2360399 1.8656445 -0.35756466 23
7.2789612 6.073216 1.501458 16
2.8531315 2.3805161 -0.32509091 12
7.2584114 6.0560703 1.8374907 18
3.7894473 3.1617332 -0.25864428 3
6.9967628 5.8377633 2.1037424 1
2.3876076 1.9921054 -0.054276984 1
7.2476292 6.0470743 2.5291798 16
1.1724434 0.97096401 -0.40789881 10
3.3728719 2.7932582 0.076441541 25
1.3372836 1.1074771 -0.40086278 5
3.4349072 2.8446331 0.23373239 9
1.5498595 1.2835227 -0.39115843 3
6.7410464 5.5826263 0.76575035 5
1.8469728 1.5295784 -0.37982288 2
1.6985825 1.4066883 0.27079368 8
2.2703826 1.8802271 -0.36195195 13
7.2920432 6.0389366 1.4995807 20
2.8403544 2.3522515 -0.32265055 27
7.2669511 6.0181565 1.834056 54
3.7840896 3.1338098 -0.2574929 13
3.0918117 2.560497 0.92679834 4
3.3497701 2.7741263 -0.075917967 40
7.2652807 6.0167732 2.5276268 13
1.1846085 0.9744342 -0.41100463 10
1.3409488 1.1030364 -0.40086278 5
2.3753941 1.9539496 0.16119474 1
1.5601721 1.283365 -0.39268491 3
6.759522 5.5602417 0.76575035 1
1.8550861 1.525955 -0.38044861 2
1.7001718 1.3985258 0.2703062 8
2.2597413 1.858816 -0.35927081 10
7.2860947 5.9933891 1.494262 27
2.848139 2.3428197 -0.32265055 9
7.2762547 5.9852948 1.8313848 39
2.8859496 2.3739219 -0.19584115 1
3.0747008 2.5291846 0.91914999 22
3.3465962 2.75284 -0.075638726 14
7.2613215 5.9730115 2.5193446 8
1.1818492 0.96561134 -0.40893409 8
2.8570735 2.334327 0.064399377 3
1.3476174 1.1010495 -0.40176257 4
2.4561005 2.0067182 0.166219 1
1.5674599 1.2806685 -0.39344814 2
2.4423976 1.9955225 0.27593508 1
