# .PCD v0.7 - Point Cloud Data file format
VERSION 0.7
FIELDS x y z intensity
SIZE 4 4 4 4
TYPE F F F F
COUNT 1 1 1 1
WIDTH 1358
HEIGHT 1
VIEWPOINT 0 0 0 1 0 0 0
POINTS 1358
DATA ascii
1.5597 -0.62099534 -0.44982749 1
6.7681584 -2.6947458 0.12715824 42
1.7869755 -0.71148521 -0.44405338 3
6.7914577 -2.7040224 0.3830992 42
2.1431963 -0.8533147 -0.44840115 1
6.9007711 -2.7475457 0.6498332 17
2.5932214 -1.0324924 -0.44208381 1
6.8386116 -2.7227967 -0.90378302 4
6.227035 -2.4792972 1.0615643 2
6.8285799 -2.7188027 -0.64303505 15
6.2544851 -2.4902265 1.3085681 23
6.8174357 -2.7143657 -0.38456461 40
6.2788563 -2.4999299 1.5602605 88
6.8183208 -2.7147179 -0.12810066 35
6.2657223 -2.4947004 1.8070745 39
1.5574135 -0.62670779 -0.44982749 1
6.7934837 -2.7337179 0.12782143 39
1.7988186 -0.72384995 -0.44765261 3
6.7963243 -2.7348609 0.38393658 45
2.1509824 -0.8655616 -0.45069084 1
6.933167 -2.7899268 0.65384239 21
2.59675 -1.0449399 -0.44333526 1
6.8359528 -2.7508075 -0.90475798 2
6.1849198 -2.4888299 1.0559326 1
6.8444462 -2.7542253 -0.64547545 15
6.8259702 -2.7467906 -0.38561133 42
6.2479568 -2.5141964 1.5548617 61
6.838007 -2.7516341 -0.12865914 31
1.5553266 -0.6318689 -0.44982749 1
6.826992 -2.7735422 0.12862423 45
1.7927974 -0.72834408 -0.44675279 3
6.8186746 -2.7701631 0.38571599 40
2.1299114 -0.86530036 -0.44687468 2
6.9534111 -2.8249011 0.65663135 21
6.9233189 -2.812676 -1.1835831 1
6.93714 -2.8182909 0.91938233 18
6.8451838 -2.7809329 -0.90719539 2
6.1674819 -2.5056088 1.0543683 2
6.864809 -2.7889056 -0.64826441 15
6.9099345 -2.8072383 1.4497668 8
6.8556819 -2.7851977 -0.38780943 40
6.8473711 -2.7818213 -0.12900819 31
6.3537507 -2.5812826 1.8376153 1
6.8529096 -2.8105831 0.12928742 40
1.7939783 -0.73576415 -0.44765261 3
6.8371692 -2.8041275 0.38728607 38
2.1342959 -0.87533855 -0.44840115 1
6.9698124 -2.8585284 0.65907174 21
6.93223 -2.8431146 -1.1867119 1
6.9479589 -2.8495655 0.92206347 10
6.8891869 -2.8254614 -0.91426378 2
6.1372075 -2.5170522 1.0506139 1
6.8850169 -2.8237512 -0.65105337 17
6.9423652 -2.8472714 1.458544 8
6.8815184 -2.8223162 -0.38979819 40
6.9487362 -2.8498845 1.7339227 9
6.8640103 -2.815136 -0.12949686 31
6.9492865 -2.8501101 2.0125768 6
1.5796605 -0.65399384 -0.45810971 1
6.8620281 -2.8409419 0.12963648 36
1.8059329 -0.74767262 -0.4512518 3
6.8665853 -2.8428288 0.3894842 36
2.1313815 -0.8824113 -0.44840115 1
6.9842257 -2.8915331 0.66133779 22
2.6117783 -1.0812999 -0.44771543 1
6.4249177 -2.6599743 0.85381663 28
6.9384708 -2.8725901 -0.92206347 4
6.8940239 -2.8541887 -0.65279651 15
6.4231672 -2.6592498 1.3513093 16
6.9108739 -2.8611646 -0.39199632 45
6.4062901 -2.6522624 1.6007518 9
6.8805041 -2.8485913 -0.12998553 32
6.6559935 -2.7556419 1.9302725 4
1.5130935 -0.63294071 -0.43947473 1
6.8847756 -2.8799641 0.13026476 40
1.7923937 -0.74977452 -0.4485524 3
6.8856001 -2.8803089 0.39115894 33
2.1389999 -0.89476305 -0.45069084 1
7.0066662 -2.9309518 0.66447538 30
2.5713503 -1.0756191 -0.44145805 1
6.3913183 -2.6735463 0.85064805 49
6.9535346 -2.9087265 -0.92547578 2
6.1340647 -2.5659347 1.0531168 32
6.9221153 -2.8955836 -0.65645707 12
6.3916435 -2.6736825 1.3467299 5
6.915081 -2.8926411 -0.39283368 49
6.4163017 -2.6839972 1.6057006 27
6.9327402 -2.900028 -0.13117228 32
6.3999043 -2.6771381 1.8588384 22
1.5465808 -0.65298325 -0.44982749 1
6.9065051 -2.9160016 0.13085814 42
1.7863069 -0.75419819 -0.44765261 3
6.9072905 -2.9163332 0.39293835 38
2.125169 -0.89726955 -0.44840115 1
7.0354533 -2.9704449 0.66813594 22
2.5932467 -1.094897 -0.44583821 1
6.4153352 -2.7086244 0.85503531 12
6.9511657 -2.9348578 -0.92645073 2
6.1073236 -2.5785785 1.0499882 59
6.9620337 -2.9394464 -0.66116345 7
6.9994931 -2.9552622 1.4768616 9
6.9422503 -2.9310937 -0.39492711 49
6.691021 -2.8250217 1.6767851 23
6.9525609 -2.9354467 -0.13173077 32
7.0014372 -2.9560828 2.0363882 6
1.5583928 -0.66471082 -0.45396861 1
6.9343977 -2.9577713 0.13159114 40
1.7871156 -0.76226938 -0.4485524 3
6.9204378 -2.951817 0.39429909 36
2.136313 -0.91121471 -0.45145407 1
7.0538416 -3.0087183 0.6709249 22
2.6146543 -1.1152445 -0.45021838 1
6.4930091 -2.7695031 0.86673474 13
6.0941978 -2.5993955 1.0493624 21
6.9658747 -2.9711974 -0.66255796 5
7.0283432 -2.9978423 1.4852573 8
6.9590173 -2.9682724 -0.39649719 35
6.6573191 -2.8395872 1.6709365 27
6.9583097 -2.9679706 -0.13204491 25
7.0278716 -2.9976413 2.0472586 7
1.5171423 -0.65307087 -0.44258058 3
6.957613 -2.994982 0.13221943 36
1.7917378 -0.77127349 -0.45035201 3
2.1116402 -0.90897906 -0.44687468 1
2.5746534 -1.1082883 -0.44396102 1
6.5293727 -2.8106413 0.87282825 3
3.4005251 -1.463794 -0.45457265 1
6.1744504 -2.657861 1.064693 88
7.0472159 -3.0335526 1.491363 4
6.6996422 -2.8839357 -0.38226181 2
6.6389165 -2.8577957 1.6686869 27
7.0498323 -3.0346789 2.056576 7
1.5022231 -0.65349698 -0.4389571 11
1.7708933 -0.77037388 -0.44585299 3
6.5511594 -2.8498847 0.37441143 2
2.1117349 -0.91864675 -0.44763792 1
6.5351863 -2.8429363 0.62351221 1
2.5703788 -1.118166 -0.44396102 1
6.5403762 -2.8451941 0.8757531 3
3.3948796 -1.4768403 -0.45457265 1
6.4938745 -2.8249648 1.1216351 39
7.0679212 -3.0746865 1.4982322 15
6.607935 -2.8745832 -0.37765625 2
6.6171727 -2.8786018 1.6659875 30
6.6728401 -2.9028184 -0.12701862 3
7.0540714 -3.0686617 2.061235 6
1.4910889 -0.65485269 -0.43636891 16
6.5912614 -2.8947337 0.12565732 1
1.764625 -0.77498353 -0.44495317 3
6.5411716 -2.8727353 0.37441143 2
2.1228957 -0.93232799 -0.45069084 1
6.5398169 -2.8721402 0.62490666 1
2.577312 -1.1318973 -0.44583821 1
5.966969 -2.6205585 0.80019408 18
3.3897038 -1.4886816 -0.45457265 1
6.6000156 -2.8985784 -0.63065898 2
6.5789995 -2.8893485 1.3967218 1
6.6234617 -2.9088755 -0.37912166 2
6.5928102 -2.8954139 1.6623883 27
6.6626668 -2.9260933 -0.12701862 3
6.590507 -2.8944023 1.9287195 2
1.4923261 -0.66161954 -0.43740419 28
6.5518675 -2.9047561 0.12509885 1
1.7672535 -0.783508 -0.44630289 3
6.465373 -2.8664091 0.37064323 2
2.1124492 -0.93654978 -0.44916436 1
6.5115371 -2.8868759 0.62316358 1
2.5986271 -1.1520957 -0.45021838 1
5.9450822 -2.6357391 0.79848796 27
3.3844864 -1.5005047 -0.45457265 1
6.5480347 -2.9030569 1.1344627 1
6.5527205 -2.9051344 1.3932873 1
6.569447 -2.91255 -0.37660953 2
6.5577221 -2.9073517 1.6560897 30
6.5627027 -2.90956 1.9235431 2
1.4952974 -0.66919214 -0.4389571 33
6.541688 -2.9276087 0.12509885 1
1.7698441 -0.7920602 -0.44765261 3
6.4699121 -2.8954868 0.37148061 2
2.1163352 -0.94712579 -0.45069084 2
6.4868717 -2.9030766 0.62176907 1
2.5693469 -1.1498626 -0.44583821 1
5.9304094 -2.6540427 0.79775673 52
3.3792281 -1.5123097 -0.45457265 1
6.5288458 -2.9218616 1.1328984 1
6.5479159 -2.9303958 1.3944322 2
6.5483022 -2.9305687 -0.37598151 2
6.5155163 -2.9158959 1.6479914 27
6.5560331 -2.9340286 1.9245784 2
1.4823891 -0.66963583 -0.43585128 40
6.5387182 -2.9537187 0.12523846 1
1.781276 -0.80465126 -0.4512518 3
6.4524851 -2.9147644 0.37106192 2
2.1040702 -0.95046628 -0.44878277 2
6.4512782 -2.9142194 0.61932874 1
2.6049225 -1.176715 -0.45272133 1
5.9301543 -2.6788135 0.79897541 30
6.5024052 -2.9373147 1.1300826 1
6.5000744 -2.9362619 1.3864181 1
6.5016294 -2.9369645 -0.37388808 2
6.4946423 -2.9338081 1.645292 26
6.5211039 -2.9457614 1.9173315 2
1.4712538 -0.67079914 -0.43326309 48
6.4628663 -2.94666 0.12398189 1
1.7855489 -0.81409794 -0.45305142 3
6.4077425 -2.9215274 0.36907315 2
2.1007397 -0.9578051 -0.44878277 2
6.4156866 -2.9251492 0.61688834 1
2.5720413 -1.1726888 -0.44771543 1
5.9478607 -2.7118502 0.8026315 4
6.4741387 -2.9517996 1.1269538 1
6.4826398 -2.9556758 1.3848916 1
6.4913378 -2.9596415 -0.37388808 2
6.4754963 -2.9524186 1.6430424 27
6.6211629 -3.0188334 -0.12701862 3
6.4967194 -2.962095 1.9131904 2
1.4744048 -0.67783874 -0.434816 52
6.4390421 -2.9602668 0.12370266 1
1.7617356 -0.80993527 -0.44765261 3
6.4112358 -2.9474833 0.36980587 2
2.1066391 -0.96850038 -0.45069084 1
6.3992243 -2.9419613 0.61619109 1
2.5575757 -1.1758126 -0.44583821 1
6.3848052 -2.9353323 0.86283493 1
6.4630384 -2.9712989 1.126641 1
6.4376469 -2.9596255 1.3772594 1
6.482008 -2.9800198 -0.37388808 2
6.4608774 -2.9703054 1.6416928 27
6.4592977 -2.9695792 1.9049082 2
1.4720298 -0.68298125 -0.434816 52
6.4250417 -2.9810421 0.12363285 1
1.7588975 -0.81607997 -0.44765261 3
6.3827906 -2.9614387 0.36875916 2
2.099684 -0.97419542 -0.4499276 1
6.3816867 -2.9609265 0.61549383 1
5.7394514 -2.6629472 -1.0021192 1
6.388926 -2.9642854 0.86478484 1
5.7172604 -2.6526511 -0.77387035 2
6.4239569 -2.9805388 1.1216351 1
5.7220106 -2.6548553 -0.55187017 2
6.4272766 -2.982079 1.3772594 1
5.6943259 -2.6420102 -0.32898381 7
6.4292569 -2.9829979 1.636294 31
5.748435 -2.6671152 -0.11061335 3
6.4453874 -2.9904821 1.9038728 2
1.4696368 -0.68811542 -0.434816 54
5.6992478 -2.66851 0.10984544 9
1.7560382 -0.82221466 -0.44765261 3
5.7140098 -2.6754217 0.33065858 2
2.0891585 -0.97818875 -0.44840115 1
5.7614274 -2.6976237 0.55657655 1
2.5600386 -1.1986649 -0.44771543 1
6.3030329 -2.951215 0.85454786 1
5.6971793 -2.6675415 -0.77240789 2
6.383101 -2.9887047 1.1163163 1
5.7018824 -2.6697435 -0.55082428 2
6.4168282 -3.0044963 1.3772594 1
5.6778336 -2.6584833 -0.32856512 16
5.6920037 -2.665118 -0.10970583 18
6.4314103 -3.0113242 1.9028376 2
1.4602391 -0.68994004 -0.43274546 56
5.684474 -2.6858249 0.10974073 18
1.7672532 -0.83499944 -0.4512518 3
5.68116 -2.6842592 0.32929784 18
2.0892813 -0.9871527 -0.44916436 1
5.5844426 -2.6385615 0.54036558 40
2.5915599 -1.2244714 -0.45397282 1
5.7093711 -2.6975884 0.77533275 19
5.6914229 -2.6891081 -0.7728954 2
6.3476248 -2.9991531 1.1119362 1
5.6817198 -2.6845236 -0.5497784 2
6.3814502 -3.015135 1.3719167 1
5.668519 -2.6782866 -0.32856512 14
6.3747978 -3.011992 1.6277459 1
5.6718178 -2.6798451 -0.1094964 12
6.3929124 -3.020551 1.8945554 2
1.4454949 -0.6894657 -0.42912197 50
5.6673722 -2.703198 0.10960111 15
1.760663 -0.83979321 -0.45035201 3
5.6748891 -2.7067833 0.32950717 18
2.0891933 -0.99649411 -0.4499276 1
5.6071038 -2.6744511 0.54350322 27
2.5406981 -1.2118508 -0.44583821 1
5.686904 -2.7125139 0.77362657 21
5.7137794 -2.725333 -0.77728266 2
6.3080626 -3.0087914 1.1069303 1
5.6790357 -2.708761 -0.55047566 2
6.3526363 -3.0300519 1.3681005 1
5.6965213 -2.7171013 -0.33076325 14
6.3426085 -3.025269 1.622347 1
5.7070799 -2.7221375 -0.11036902 9
6.3469257 -3.0273283 1.8842026 2
1.4413387 -0.69366944 -0.42860433 43
5.6687131 -2.7281673 0.10981054 12
1.754209 -0.84424376 -0.44945222 3
5.683403 -2.7352371 0.33055389 8
2.0892403 -1.0054834 -0.45069084 1
5.5492611 -2.6706789 0.53879678 28
2.5542519 -1.2292784 -0.44896692 1
5.675612 -2.7314875 0.77338284 15
3.3359647 -1.6054914 -0.45457265 1
6.3117614 -3.0376456 1.1094332 1
5.726995 -2.7562168 -0.55605364 2
6.3207922 -3.0419917 1.3635211 1
5.7103982 -2.748229 -0.33212397 7
6.3284979 -3.0457003 1.6214472 1
5.7335806 -2.7593861 -0.11106712 9
6.3363194 -3.0494647 1.8842026 2
1.4372925 -0.69760174 -0.4280867 37
5.6974139 -2.7652867 0.11054354 10
1.7478935 -0.84835446 -0.4485524 3
5.6994567 -2.7662783 0.3320193 14
2.1000242 -1.019264 -0.45374379 1
5.5314121 -2.6847165 0.53792524 42
2.5501616 -1.2377419 -0.44896692 1
5.7004542 -2.7667623 0.77801389 21
3.3306224 -1.6165451 -0.45457265 1
6.3016534 -3.0585594 1.1094332 1
6.2788777 -3.0475051 1.3566519 1
6.2384973 -3.0279059 -0.36342087 2
6.293819 -3.0547569 1.6151485 1
6.2983651 -3.0569634 1.8759204 2
1.4452586 -0.70771211 -0.43119252 29
6.2570381 -3.0639372 0.12160837 1
1.7449214 -0.85445058 -0.4485524 3
6.1256461 -2.9995975 0.35745457 2
2.0823479 -1.019681 -0.45069084 1
5.532743 -2.7092655 0.53897113 39
2.5458255 -1.246636 -0.44896692 1
5.7139382 -2.7979929 0.78118247 13
6.2625532 -3.066638 1.1044273 1
6.2770181 -3.0737209 1.3585601 1
6.2278895 -3.049664 -0.36342087 2
6.2656155 -3.0681376 1.6106496 1
6.2807159 -3.0755317 1.8738499 2
1.4323872 -0.70761883 -0.4280867 21
6.2498903 -3.0875311 0.12167818 1
1.7524112 -0.86571509 -0.4512518 3
6.161696 -3.0439618 0.36017606 2
2.0770156 -1.0260741 -0.45030922 2
5.5911317 -2.7620955 0.54559493 9
2.5556269 -1.2625145 -0.45146987 1
5.7005773 -2.8161628 0.78069502 7
3.3192558 -1.6397576 -0.45457265 1
6.2500396 -3.0876048 1.1041144 1
6.2451282 -3.0851784 1.3539807 1
6.2172065 -3.0713849 -0.36342087 2
6.226913 -3.07618 1.6034511 1
6.3449116 -3.1344728 -0.12352813 3
6.2456937 -3.0854578 1.8666029 2
1.4160763 -0.70572102 -0.42394561 19
6.2140183 -3.0968411 0.12118951 1
1.7424021 -0.86834997 -0.44945222 3
6.1689086 -3.0743601 0.36122277 2
2.0646355 -1.0289395 -0.44840115 2
5.6010718 -2.7913709 0.54751235 42
2.5547402 -1.2731898 -0.4520956 1
5.6836052 -2.8325026 0.77972007 3
3.3135116 -1.6513339 -0.45457265 1
6.2286158 -3.104116 1.1022372 1
6.2255354 -3.1025808 1.3520726 1
6.2421989 -3.1108854 -0.36551431 2
6.1986957 -3.089205 1.5989521 2
6.2279692 -3.1037939 1.8645324 2
1.4134802 -0.71090645 -0.42394561 11
6.2097721 -3.1231899 0.12132913 1
1.7426896 -0.87648159 -0.45035201 3
6.1254816 -3.0807962 0.35933867 2
2.0783896 -1.0453211 -0.45221731 2
5.5925832 -2.8127763 0.5476867 36
2.5429976 -1.2789946 -0.45084414 1
5.6554513 -2.8443956 0.77728266 3
3.3074369 -1.6634675 -0.45457265 1
6.1942549 -3.1153858 1.0981699 1
6.1790433 -3.1077352 1.3444402 1
6.2307549 -3.1337433 -0.36551431 2
6.204741 -3.1206596 1.6034511 1
6.2027445 -3.1196554 1.8603913 2
1.4161584 -0.71845818 -0.42549852 7
6.1809988 -3.1357996 0.12098008 1
1.7430953 -0.8843227 -0.4512518 3
6.0844107 -3.0867977 0.35755926 2
2.0834823 -1.0570109 -0.4541254 2
5.6022754 -2.8421965 0.54960412 4
2.5490873 -1.2932259 -0.45272133 1
5.6685019 -2.8757951 0.7804513 1
3.3016102 -1.6750025 -0.45457265 1
6.171011 -3.1307325 1.0959798 1
6.1594038 -3.1248438 1.342532 1
6.1129093 -3.1012559 -0.35923401 2
6.1555767 -3.1229024 1.5935533 1
6.1814799 -3.1360438 1.8572855 2
1.4052941 -0.7185064 -0.42291033 4
6.1604342 -3.1497405 0.12077066 1
1.7420436 -0.89068156 -0.45170173 3
6.1049147 -3.1213541 0.35933867 2
2.0853953 -1.0662323 -0.45527026 1
5.6146064 -2.8706665 0.55169582 7
2.573153 -1.3156158 -0.45772725 1
6.108377 -3.1231241 0.84236091 1
3.2963319 -1.6853665 -0.45457265 1
6.1312451 -3.1348164 1.090661 2
6.1443124 -3.1414976 1.3413873 1
6.1173625 -3.1277184 -0.36007139 2
6.135325 -3.1369023 1.5908538 1
6.1681571 -3.1536891 1.8562502 2
1.3976265 -0.72075111 -0.42135739 3
6.1280746 -3.1602266 0.12035179 1
1.728532 -0.89139789 -0.4490023 2
6.0620298 -3.1261675 0.35745457 2
2.0572321 -1.0609075 -0.4499276 1
6.0472493 -3.1185453 0.59527373 1
2.5404544 -1.3101034 -0.45272133 1
6.104495 -3.1480668 0.84333587 1
6.1133165 -3.152616 -0.84455454 2
6.1149983 -3.1534834 1.0897225 1
6.2048497 -3.1998193 -0.61078745 2
6.1350541 -3.163826 1.3417689 1
6.0780058 -3.1344063 -0.35839662 4
6.1035538 -3.1475813 1.5854551 1
6.1120791 -3.1519778 -0.12003765 3
6.1296396 -3.1610336 1.847968 2
1.3916743 -0.7238425 -0.42032212 3
6.0886207 -3.1668346 0.11979332 1
1.7444274 -0.90731764 -0.45395124 3
6.0209579 -3.1316414 0.35567516 2
2.043066 -1.0626466 -0.44763792 1
6.0363269 -3.1396351 0.59527373 1
2.5218458 -1.3116711 -0.45021838 1
6.0582466 -3.1510363 0.8384611 1
3.2844856 -1.708338 -0.45457265 1
6.0759134 -3.1602252 1.0847166 1
6.1052628 -3.1754904 -0.60207188 2
6.1013298 -3.173445 1.3368078 1
6.0475364 -3.1454656 -0.35724524 14
6.0856137 -3.1652706 1.5836555 1
6.1010394 -3.1732938 -0.12003765 3
6.1031432 -3.1743879 1.8433093 2
1.4096683 -0.73946482 -0.42653379 3
6.0598211 -3.1787794 0.11944427 1
1.7308954 -0.90796977 -0.4512518 3
6.0506692 -3.1739788 0.35808262 2
2.0393443 -1.0697718 -0.44763792 1
6.0253305 -3.1606867 0.59527373 1
2.5207505 -1.3223014 -0.45084414 1
6.0296316 -3.1629429 0.83602369 1
3.2960813 -1.729014 -0.45701003 1
6.0648451 -3.1814148 1.0847166 1
6.094141 -3.1967826 -0.60207188 2
6.0780454 -3.1883392 1.3341365 1
6.047132 -3.1721232 -0.35787326 4
6.0745282 -3.1864941 1.5836555 2
6.0899253 -3.194571 -0.12003765 3
6.0971575 -3.1983647 1.8448621 2
1.389874 -0.7355898 -0.42135739 3
6.0481296 -3.2009683 0.11944427 1
1.718944 -0.90974987 -0.4490023 3
5.9719152 -3.1606319 0.35410509 2
2.0631731 -1.0919329 -0.45374379 1
5.9925737 -3.1715655 0.59318197 1
2.5368383 -1.3426199 -0.45459855 1
6.0074711 -3.17945 0.83456129 1
3.2511227 -1.7206544 -0.45164779 1
6.0391765 -3.1962299 1.0822136 2
6.0823832 -3.2190971 -0.60207188 2
6.045496 -3.1995747 1.3295571 1
6.0195775 -3.1858573 -0.35693121 2
6.0455842 -3.1996212 1.5791564 1
6.0781755 -3.2168703 -0.12003765 3
6.0546598 -3.2044244 1.8355447 2
1.4230881 -0.75953907 -0.43222782 4
6.0157495 -3.2107618 0.11902541 1
1.7329497 -0.92492032 -0.45350131 2
5.9626083 -3.182399 0.35420975 2
2.0489569 -1.0935816 -0.45145407 1
5.9814668 -3.1924644 0.59318197 1
2.5147092 -1.3421657 -0.45146987 1
5.982326 -3.1929231 0.83261138 1
3.2415941 -1.730123 -0.45116031 1
6.0035849 -3.2042694 1.0778334 1
6.0359554 -3.2215464 -0.59858567 2
6.0169706 -3.2114136 1.3257409 1
6.0436602 -3.2256587 -0.35902467 2
6.0103097 -3.2078586 1.5728577 1
6.0669098 -3.2380674 -0.12003765 3
6.0400286 -3.2237203 1.8345094 2
1.423964 -0.76608455 -0.43326309 5
6.015635 -3.2363777 0.11923484 1
1.7195762 -0.92512226 -0.45080191 2
5.9572988 -3.204993 0.35452378 2
2.0626085 -1.1096717 -0.45527026 1
5.9603195 -3.2066183 0.59213614 1
2.5345991 -1.3635999 -0.45585003 1
5.9786978 -3.2165055 0.83358634 1
3.2148612 -1.7295771 -0.44823545 1
5.9824886 -3.218545 1.0759562 1
6.0603309 -3.2604237 -0.60207188 2
5.9941859 -3.224838 1.3230696 1
6.036448 -3.2475748 -0.35923401 2
6.0030713 -3.2296185 1.5737575 1
6.0103521 -3.2335355 -0.11913013 3
6.0020847 -3.2290876 1.8262272 2
1.4229792 -0.7719717 -0.43378073 5
5.9550858 -3.2306569 0.11825751 1
1.7266139 -0.93669462 -0.45350131 3
5.9653859 -3.2362447 0.35567516 2
2.0518198 -1.1131201 -0.45374379 1
5.9666028 -3.2369049 0.59387922 1
2.5471869 -1.3818586 -0.45897871 1
5.960454 -3.2335691 0.83261138 1
5.9607992 -3.2337563 1.074079 1
5.9621844 -3.2345078 1.3184901 2
5.9592161 -3.2328975 1.5652094 2
5.9602113 -3.2334375 1.8169097 2
1.4218349 -0.77810943 -0.43429837 7
6.0905571 -3.333101 0.12118951 1
1.7214597 -0.94208115 -0.45305142 3
5.9639969 -3.2638402 0.35630319 4
2.030504 -1.1112078 -0.4499276 1
5.9581947 -3.2606647 0.59422785 1
2.4935849 -1.3646322 -0.45021838 1
5.9572692 -3.2601585 0.83383006 6
5.9610372 -3.2622204 1.0762691 1
6.7359581 -3.6863015 -0.67179644 2
5.9554558 -3.259166 1.319635 1
6.6753316 -3.6531231 -0.39879999 2
5.9661312 -3.2650082 1.5701584 1
5.9618778 -3.2626805 1.8210508 2
1.4478645 -0.79893446 -0.44309822 7
6.6671643 -3.6789544 0.13291752 1
1.7181607 -0.94808447 -0.45305142 3
2.043802 -1.1277739 -0.45374379 1
6.0514426 -3.3391979 0.60468656 1
2.5095608 -1.3847805 -0.45397282 1
5.9962564 -3.3087461 0.84089845 1
3.2414546 -1.788641 -0.45457265 1
6.6480389 -3.668401 -0.6643011 7
6.0540543 -3.3406391 1.3440585 1
6.6293139 -3.6580684 -0.39681122 16
5.9785852 -3.298995 1.576457 1
6.6496563 -3.6692934 -0.13256848 32
5.979207 -3.2993381 1.8298507 1
1.4705321 -0.81781548 -0.45086277 6
6.6426945 -3.6942399 0.13267319 47
1.7064918 -0.94904113 -0.45080191 3
6.629365 -3.6868269 0.39754394 24
2.0331879 -1.1307284 -0.45221731 1
6.6323552 -3.6884897 0.66395247 3
2.5222185 -1.4026959 -0.45710149 1
6.6410265 -3.6933122 0.93303168 1
6.6033444 -3.6723559 1.1967237 1
6.6263051 -3.6851251 1.4738086 1
6.6328559 -3.6887684 -0.39775327 2
6.597754 -3.6692469 1.7429208 1
6.635704 -3.6903522 -0.13253358 18
6.5929136 -3.6665549 2.0213768 1
1.4609283 -0.81916428 -0.44879222 6
1.7150671 -0.96166372 -0.45395124 3
6.6199393 -3.7118988 0.39775327 20
2.0360782 -1.1416594 -0.45374379 2
6.6055369 -3.7038231 0.66255796 4
2.5173068 -1.4114915 -0.45710149 1
6.6332884 -3.7193837 0.93376291 3
3.1460936 -1.7640617 -0.44287318 1
6.6197762 -3.7118073 1.2020425 3
6.6356626 -3.720715 1.4787697 2
6.6582656 -3.7333889 -0.40005606 2
6.6223006 -3.7132227 1.7528186 2
6.6088285 -3.7056687 -0.13225433 3
6.6255708 -3.7150564 2.0353529 1
1.4632494 -0.8268556 -0.45034513 7
6.6261001 -3.7442884 0.13284771 1
1.7254415 -0.97501552 -0.45755044 3
6.5954223 -3.7269528 0.39702058 2
2.0322812 -1.1484051 -0.45374379 1
6.6001563 -3.7296281 0.66325521 1
2.4885354 -1.4062259 -0.45272133 1
6.6226463 -3.7423368 0.93400663 1
3.164422 -1.7881572 -0.44628555 1
6.5953922 -3.7269361 1.1998523 1
6.6130323 -3.7369041 1.47648 1
6.6006389 -3.7299006 -0.39733458 2
6.6133442 -3.7370803 1.7537184 1
6.6115332 -3.7360568 2.0348353 2
1.4855329 -0.84630239 -0.45810971 6
6.5712891 -3.7436383 0.13201 1
1.6966289 -0.96656299 -0.45080191 2
6.589314 -3.7539072 0.39743924 2
2.02826 -1.1554921 -0.45374379 1
6.5767102 -3.746727 0.66220933 1
2.5110736 -1.4305491 -0.45772725 1
6.5888448 -3.7536397 0.93108177 1
3.1857581 -1.8149143 -0.45018536 1
6.5771937 -3.7470021 1.1989137 1
6.5726542 -3.744416 1.4703741 1
6.5702248 -3.743032 -0.39628786 2
6.5968723 -3.758213 1.7528186 1
6.6703277 -3.8000603 -0.13399957 3
6.5867014 -3.7524188 2.0312119 2
1.4725183 -0.84570992 -0.45500389 6
6.5304365 -3.7506189 0.13145153 1
1.6847953 -0.96762675 -0.4485524 3
6.5242124 -3.7470441 0.39429909 2
2.0105946 -1.1547428 -0.45069084 1
6.5324931 -3.7518001 0.65907174 1
2.5094907 -1.4412733 -0.45835298 1
6.5516024 -3.7627752 0.92766947 1
3.1794035 -1.8260236 -0.45018536 1
6.5555091 -3.7650189 1.1973494 1
6.5629487 -3.7692916 1.4711374 1
6.5952215 -3.787827 -0.39859065 2
6.5701947 -3.7734532 1.7492194 1
6.5668621 -3.7715392 2.0291414 2
1.472901 -0.85278076 -0.45603916 7
6.5346103 -3.7834113 0.13180058 1
1.6932126 -0.9803369 -0.45170173 3
6.4644246 -3.742775 0.39147297 2
2.0201437 -1.1696236 -0.45374379 1
6.5124602 -3.7705867 0.65837449 1
2.5112824 -1.4539834 -0.45960447 1
6.5453 -3.7896004 0.92864442 1
3.1369338 -1.8162231 -0.44506684 2
6.5183935 -3.7740221 1.1929692 1
6.5225668 -3.7764385 1.4650315 1
6.5333724 -3.7826946 1.7429208 1
6.5335946 -3.7828233 2.0229297 2
1.4732522 -0.85986459 -0.45707443 6
1.6981956 -0.99115294 -0.45395124 3
2.0092664 -1.1727096 -0.45221731 1
2.5164282 -1.468715 -0.46148166 1
6.4977427 -3.7924118 0.92376959 1
3.1991525 -1.8671875 -0.4548164 33
6.4898257 -3.787791 1.1901534 2
3.214354 -1.8760598 -0.32561386 4
6.4923892 -3.7892871 1.4612153 1
3.2774088 -1.9128617 -0.19887663 1
6.5066643 -3.7976186 1.7393216 1
6.5136766 -3.8017116 2.020859 2
1.4602513 -0.85912424 -0.45396861 6
1.6980847 -0.99905103 -0.45485103 3
2.0186975 -1.1876805 -0.45527026 2
2.5010707 -1.4714799 -0.45960447 1
6.4844651 -3.8150702 0.92376959 1
6.4561334 -3.7984014 1.186399 1
6.4774303 -3.8109312 1.4608337 1
6.4799314 -3.8124025 1.7357223 1
6.4803858 -3.81267 2.0146475 2
1.4638901 -0.86815792 -0.45603916 7
3.1836774 -1.8880754 0.064608812 38
1.6979393 -1.0069605 -0.45575082 3
3.1849523 -1.8888314 0.19406173 11
2.0196054 -1.1977241 -0.45641512 2
3.2131741 -1.9055684 0.32683402 7
2.4857247 -1.4741555 -0.45772725 1
6.4540343 -3.8275559 0.92133224 1
6.4530296 -3.8269601 1.1882762 2
6.4421363 -3.8204997 1.4558727 1
6.463232 -3.8330104 1.7348225 1
3.206037 -1.9013357 -0.065062568 100
6.460391 -3.8313258 2.0125768 2
1.4591925 -0.87227136 -0.45552152 7
3.1805 -1.901229 0.064678617 27
1.6827053 -1.005882 -0.45260152 3
2.0053015 -1.1987226 -0.4541254 2
2.490737 -1.4889046 -0.45960447 1
6.4167805 -3.8358021 0.91791987 1
6.4057212 -3.829191 1.1820189 2
6.4203353 -3.8379269 1.4539646 1
6.4063234 -3.829551 1.7231251 1
6.4337125 -3.8459237 2.0084357 2
1.461103 -0.88035053 -0.45707443 6
1.6825222 -1.0137612 -0.45350131 3
2.0011051 -1.2057151 -0.4541254 2
2.4821405 -1.4955509 -0.45897871 1
6.2673273 -3.7762194 0.89842081 1
3.0996575 -1.8676201 -0.44433564 1
6.3567839 -3.8301191 1.1754485 1
6.4052176 -3.8593016 1.4535829 1
6.376225 -3.8418329 1.718626 1
6.4136295 -3.8643701 2.0063653 2
1.4613235 -0.88745093 -0.45810971 6
6.1052666 -3.7076831 0.12467999 1
1.6823045 -1.0216511 -0.45440114 2
6.0722213 -3.6876149 0.372318 2
1.995206 -1.2116739 -0.45374379 2
2.4904125 -1.512409 -0.46148166 1
6.1081901 -3.7094586 0.87745929 1
3.1066933 -1.8866718 -0.44628555 1
6.0782948 -3.6913033 1.1263281 1
6.0728769 -3.6880131 1.3810755 1
6.2070837 -3.769516 -0.38058707 2
6.0629592 -3.6819901 1.6376437 1
6.0929761 -3.7002192 1.9100846 2
1.4499782 -0.88750386 -0.45552152 7
6.1332207 -3.7540264 0.12551771 1
1.6887007 -1.0336213 -0.45710054 2
6.0729399 -3.7171299 0.37315536 2
2.0026858 -1.2258055 -0.45641512 2
6.0649304 -3.7122273 0.6221177 1
2.4918573 -1.5252179 -0.46273315 1
6.1595426 -3.7701375 0.88672131 1
3.1339507 -1.9182311 -0.45116031 1
6.097384 -3.7320917 1.1322726 1
6.1085262 -3.7389116 1.3921424 1
6.070015 -3.7153394 1.6430424 1
6.0750794 -3.7184396 1.9085317 1
1.4534482 -0.89661694 -0.45759207 7
6.1473098 -3.7922108 0.12607618 1
1.6734726 -1.0323477 -0.45395124 3
6.0905247 -3.7571809 0.37503946 2
1.9866984 -1.2255734 -0.45374379 2
6.0553269 -3.7354674 0.62246633 1
2.4562562 -1.5152386 -0.45710149 1
6.1666183 -3.8041222 0.88964623 1
3.1306148 -1.9312434 -0.45164779 1
6.1213064 -3.7761695 1.1391557 1
6.1154885 -3.7725809 1.3967218 1
6.2418108 -3.8505075 -0.38435528 2
6.1167164 -3.7733381 1.6592389 1
6.1048112 -3.7659938 1.9219903 1
1.4519502 -0.90270495 -0.45810971 7
6.1815858 -3.843209 0.12705351 1
1.6698588 -1.0381829 -0.45395124 3
6.1112962 -3.7995086 0.37713289 2
2.0057504 -1.247013 -0.45908645 2
6.0794754 -3.7797251 0.62630117 1
2.4744382 -1.5384052 -0.46148166 1
6.203877 -3.8570681 0.89695835 1
3.1171112 -1.9379671 -0.45067284 1
6.1517048 -3.8246317 1.1472903 2
6.1389632 -3.8167098 1.4051174 1
6.2283316 -3.872272 -0.38435528 2
6.1200576 -3.8049557 1.663738 1
6.1342845 -3.8138008 1.9354488 1
1.4553385 -0.9118706 -0.46018025 7
6.2223582 -3.8987393 0.12817048 1
1.6711788 -1.0471096 -0.45530093 3
6.1656952 -3.8632362 0.38131979 2
1.9847486 -1.2435827 -0.45527026 1
6.1000118 -3.8220809 0.62978739 1
2.469053 -1.5470332 -0.46148166 1
6.1870112 -3.8765922 0.8964709 1
3.1204205 -1.95516 -0.45213526 1
6.1634259 -3.8618143 1.1519834 31
6.1805038 -3.8725147 1.4177108 57
6.1562791 -3.8573363 1.677235 1
6.1700459 -3.865962 1.9509779 1
1.4410299 -0.90922213 -0.4565568 7
6.2337561 -3.933207 0.12865914 1
1.6909544 -1.0669128 -0.46159956 2
6.1873107 -3.9039025 0.38341323 2
1.980832 -1.2498119 -0.45527026 1
6.1520047 -3.8816261 0.63641125 1
2.4541569 -1.5484577 -0.45960447 1
6.2385983 -3.9362624 0.90573299 1
3.1310511 -1.9755461 -0.45457265 1
6.1796641 -3.8990777 1.1573021 20
4.7450137 -2.9938807 -0.49086115 2
6.2015152 -3.9128644 1.4253432 27
6.1803889 -3.8995352 1.687133 1
6.2003493 -3.9121292 1.9644365 1
1.4296962 -0.90906394 -0.45396861 5
6.2199883 -3.9549429 0.12865914 1
1.6658419 -1.0592158 -0.45575082 3
6.2073541 -3.9469094 0.38550666 2
1.9930243 -1.2672528 -0.45908645 1
6.1888571 -3.9351482 0.6416406 1
2.4287336 -1.5442959 -0.45585003 1
6.281775 -3.9942296 0.91402006 1
3.1241362 -1.9864635 -0.45457265 1
6.222692 -3.9566622 1.1679397 29
4.7126775 -2.9965281 -0.4885951 4
6.2126694 -3.9502892 1.4310675 27
6.3573556 -4.0422869 -0.39482245 2
6.229229 -3.9608185 1.7042292 1
6.2062182 -3.9461873 1.9706482 1
1.4362738 -0.92030239 -0.45707443 6
6.3172698 -4.0478344 0.13096286 1
1.6686976 -1.0692296 -0.45755044 3
6.2338986 -3.9944141 0.38801879 2
1.9819766 -1.2699653 -0.45755997 2
6.2589607 -4.0104728 0.65035617 1
2.4366341 -1.5612901 -0.45835298 1
6.2945371 -4.0332685 0.91791987 1
3.1907251 -2.0444794 -0.46529716 1
6.2537503 -4.007134 1.1763872 37
4.7105765 -3.0183349 -0.48946664 14
6.2335558 -3.9941943 1.4390814 37
6.2448997 -4.0014629 1.7123275 1
6.2314439 -3.992841 1.9830716 1
1.4492819 -0.93578953 -0.46225083 7
6.3367004 -4.0915556 0.13166095 1
1.6436725 -1.0613059 -0.45170173 2
6.2870331 -4.0594859 0.39220566 2
2.0039206 -1.2939152 -0.46366587 1
6.2549663 -4.0387807 0.651402 1
2.4743164 -1.5976458 -0.46648759 1
6.3204436 -4.081059 0.92376959 1
3.1835692 -2.0556045 -0.46529716 4
6.2729144 -4.0503697 1.1826446 23
4.6966643 -3.0325978 -0.48911804 19
6.2734594 -4.0507212 1.7240249 1
6.2661562 -4.0460057 1.9986007 1
1.4411488 -0.93768203 -0.46069789 7
6.3223796 -4.1136498 0.13166095 1
1.6595589 -1.0797904 -0.45710054 2
6.2493873 -4.0661573 0.39074025 2
1.9763535 -1.2859124 -0.45832321 1
6.2976108 -4.0975342 0.65732861 1
2.4488554 -1.5933453 -0.46273315 1
6.3860264 -4.1550617 0.93546909 1
3.179702 -2.0688701 -0.46578464 8
6.2852302 -4.0894785 1.1876504 7
4.6827102 -3.0468006 -0.48876941 26
6.2960272 -4.0965037 1.4600705 1
6.2952166 -4.0959764 1.7339227 1
6.2973347 -4.0973544 2.0130944 1
1.4265579 -0.9352923 -0.45707443 7
6.41501 -4.2058649 0.13389486 1
1.6460015 -1.0791658 -0.45440114 3
6.291945 -4.1251802 0.39429909 2
1.9817039 -1.2992619 -0.46061292 1
6.3165932 -4.1413403 0.66081482 1
2.4432788 -1.6018836 -0.46273315 1
6.3648434 -4.1729741 0.93449414 1
3.202343 -2.0995481 -0.47017193 38
6.3155203 -4.1406364 1.196098 1
4.6670475 -3.0598505 -0.48824647 38
6.357214 -4.1679721 1.4776249 1
6.7345695 -4.4153771 -0.42203715 2
6.33955 -4.1563911 1.7501192 1
6.3217678 -4.1447325 2.0255179 1
1.4200606 -0.93813652 -0.45603916 7
6.6839314 -4.4156146 0.13982868 1
1.6536062 -1.092424 -0.45755044 3
6.317502 -4.1735396 0.39681122 2
1.9804326 -1.3083358 -0.46137616 1
6.3187227 -4.174346 0.66255796 1
2.4673395 -1.6300018 -0.46836478 1
6.4463034 -4.2586298 0.94863099 1
3.2016199 -2.1150904 -0.47114688 31
6.3768449 -4.2127433 1.2104899 1
4.638052 -3.0640426 -0.48632905 47
6.3950448 -4.2247667 1.4898367 1
6.7224488 -4.4410601 -0.42224649 2
6.3477664 -4.1935334 1.7564179 1
6.7356544 -4.4497843 -0.14091073 3
6.3362751 -4.1859417 2.0348353 1
1.424818 -0.94844013 -0.45862734 7
6.6817946 -4.4477835 0.14010791 3
1.6449162 -1.0949501 -0.45620075 3
6.316196 -4.2044201 0.3976486 2
1.9627793 -1.3065379 -0.45832321 1
3.4215693 -2.2775917 0.3596046 1
2.4254584 -1.6145234 -0.46148166 1
6.7387576 -4.4857011 0.99396634 1
3.1876075 -2.1218534 -0.47017193 31
6.7107091 -4.4670305 1.2768182 1
4.610743 -3.0691733 -0.48458594 57
6.7250934 -4.4766054 1.570358 1
6.7135558 -4.4689255 -0.42266518 2
6.699708 -4.4597077 1.8580958 1
6.7200809 -4.473269 -0.14091073 3
6.709188 -4.4660182 2.1595862 1
1.4359382 -0.96309263 -0.4632861 5
6.6712103 -4.4744215 0.14021264 11
1.6459394 -1.1039417 -0.45755044 3
6.676352 -4.4778705 0.42130443 2
1.9745115 -1.324317 -0.4621394 1
3.430145 -2.3006194 0.36134771 3
2.4559 -1.6471872 -0.46836478 1
6.6933832 -4.4892931 0.98957908 1
3.1653438 -2.1230156 -0.46797827 33
6.7032781 -4.4959297 1.2783824 1
4.6066203 -3.0896885 -0.48528317 57
6.696382 -4.4913044 1.5673051 1
7.4974194 -5.0285649 -0.47311705 2
6.700284 -4.4939218 1.8625947 1
7.4700284 -5.0101938 -0.15700185 31
6.725646 -4.510932 2.1699388 2
1.4261651 -0.96377242 -0.46121553 6
6.706913 -4.5323911 0.14129469 3
1.6453052 -1.1118625 -0.45845026 2
6.6590261 -4.5000296 0.42119977 2
1.9340904 -1.3070176 -0.45374379 1
3.4567602 -2.3360057 0.36500826 8
2.446862 -1.6535378 -0.46773905 1
6.7171459 -4.5393057 0.9954288 1
3.1447558 -2.1251597 -0.46602836 33
6.6859069 -4.5181952 1.2780696 1
4.5908546 -3.1024029 -0.48476025 61
6.688797 -4.5201483 1.5692132 1
6.6684103 -4.5063715 1.8580958 1
7.4259844 -5.0183239 -0.15644337 73
6.6906514 -4.5214014 2.1637273 2
1.4132111 -0.96222121 -0.45810971 6
7.4348688 -5.062222 0.15700185 60
1.6381924 -1.1154054 -0.45755044 3
7.2656717 -4.9470201 0.46066108 4
1.9424987 -1.3226002 -0.45679674 1
3.4667006 -2.3603923 0.36692569 10
2.4345438 -1.6576219 -0.46648759 1
8.7244368 -5.9402571 1.2959586 15
3.1356776 -2.1350069 -0.46578464 33
8.7143927 -5.9334188 1.6697814 2
4.5602345 -3.1049533 -0.48266849 66
8.7193365 -5.9367847 2.0504334 1
8.7144747 -5.9334745 2.4339705 1
7.4018102 -5.0397134 -0.15630375 65
8.7235851 -5.9396777 2.8278568 1
1.4034716 -0.96277708 -0.45603916 6
7.3957162 -5.0734382 0.15654808 54
1.6439307 -1.1277313 -0.46024987 3
7.3027096 -5.0096359 0.46411526 14
1.9540595 -1.3404787 -0.46061292 1
3.4863706 -2.3916392 0.36988896 10
2.4254849 -1.663875 -0.46586183 1
8.7691259 -6.0155926 1.3057082 8
3.1363907 -2.1515541 -0.46700332 35
8.7148046 -5.9783287 1.6738487 5
4.532939 -3.1095819 -0.48092538 73
8.7309389 -5.9893966 2.0580659 3
7.9236212 -5.4355793 -0.50357658 16
8.7258492 -5.9859052 2.4429684 3
7.3396506 -5.0349774 -0.15536132 42
8.7298803 -5.9886703 2.8366568 4
1.4062896 -0.97230923 -0.45810971 7
7.314568 -5.0572958 0.1552217 52
1.6301688 -1.1270995 -0.45755044 3
7.3335843 -5.0704436 0.46725541 40
1.952363 -1.3498647 -0.46137616 1
3.4972472 -2.4179983 0.3719807 10
2.4226198 -1.6750004 -0.46648759 1
8.7992687 -6.0838184 1.3135078 5
3.1219525 -2.1585195 -0.46602836 35
8.7123327 -6.0237107 1.6776032 6
4.5182338 -3.1239088 -0.48057675 71
8.7719069 -6.0649009 2.0729489 4
7.8806462 -5.4486823 -0.50211114 16
8.7855997 -6.074368 2.4659135 3
7.3507543 -5.082315 -0.1559896 15
8.7746115 -6.0667701 2.8583975 4
1.3997166 -0.97500378 -0.45707443 6
7.3198419 -5.0987992 0.15571037 18
1.6230265 -1.1305553 -0.45665064 3
7.342062 -5.1142769 0.46893016 59
1.9283078 -1.3432058 -0.45679674 1
3.5198479 -2.4518285 0.37529263 10
2.4167583 -1.6834468 -0.46648759 1
8.8382473 -6.1564779 1.3225261 5
3.0981102 -2.1580577 -0.46359098 33
8.8128195 -6.1387663 1.7010684 4
4.5105715 -3.1419389 -0.48092538 68
8.8280087 -6.1493464 2.0912666 4
7.8583007 -5.4738746 -0.50190181 14
8.6220284 -6.0058661 2.4258721 3
8.7736368 -6.1114726 -0.18663603 24
8.8231287 -6.145947 2.8811736 4
1.4061369 -0.98605132 -0.46018025 6
8.7625799 -6.1447458 0.18681055 25
1.6274444 -1.1412429 -0.45890015 3
8.8958073 -6.2381711 0.56941521 16
1.9433675 -1.3627834 -0.46137616 1
3.5463846 -2.4868968 0.37895316 10
2.4049883 -1.6864944 -0.4652361 1
8.9033775 -6.2434797 1.3352005 5
3.0848138 -2.1632211 -0.46261603 34
8.6204357 -6.0450668 1.6675915 1
4.497416 -3.153806 -0.48057675 59
8.8552618 -6.2097387 2.1023335 7
7.8590531 -5.5111489 -0.50305319 4
8.5759935 -6.0139027 2.4182239 11
8.8231583 -6.1872263 -0.18810204 24
8.8354111 -6.1958184 2.8915265 3
1.3900638 -0.98203617 -0.45603916 5
8.8015079 -6.2179875 0.18810204 23
1.6377754 -1.1570367 -0.46294928 3
8.9522772 -6.3245015 0.57443947 21
1.9353917 -1.3672932 -0.46061292 1
3.5604639 -2.5153553 0.38139352 10
2.4119935 -1.7039974 -0.46773905 1
8.9528675 -6.3249183 1.345925 10
3.0740016 -2.171685 -0.46212855 37
8.5363598 -6.0306692 1.6553895 1
4.4652252 -3.1545408 -0.4783107 54
8.7244959 -6.1635809 2.0763836 13
7.8560805 -5.5500727 -0.50409991 7
8.62498 -6.0932765 2.4380195 11
8.8701038 -6.266448 -0.18956804 28
8.7301054 -6.1675439 2.8640916 1
1.3897752 -0.98912281 -0.45707443 6
8.8432875 -6.2938938 0.18946332 25
1.6242005 -1.1559666 -0.46024987 3
9.011507 -6.4136181 0.57967305 21
1.9242091 -1.369487 -0.45908645 1
3.5662711 -2.538166 0.38296235 10
2.3963745 -1.7055339 -0.46586183 1
8.98734 -6.3964181 1.3544558 8
3.0631676 -2.1801 -0.46164107 41
8.5216942 -6.0650115 1.656641 1
4.4476933 -3.1654868 -0.47761348 38
8.8596792 -6.3055601 2.1137822 7
7.8805938 -5.6087308 -0.50692606 7
8.6655779 -6.1674151 2.4555657 11
8.9100847 -6.3414345 -0.19089442 28
8.8895245 -6.3268013 2.92362 3
1.4051541 -1.0074761 -0.4632861 7
8.8813944 -6.367837 0.1907548 25
1.6217393 -1.1627647 -0.46069977 3
9.0653534 -6.499733 0.58459264 23
1.9257991 -1.3807714 -0.46061292 1
3.5994887 -2.5807836 0.38749444 8
2.4032495 -1.7230967 -0.46836478 1
9.0343285 -6.4774885 1.3649366 10
3.0619919 -2.195406 -0.46261603 45
8.4683638 -6.0717001 1.6503836 1
4.43014 -3.1763492 -0.47691622 54
8.3238554 -5.9680896 1.9909011 1
7.8447361 -5.6245675 -0.50587934 7
8.5109634 -6.1022434 2.417774 1
8.5433655 -6.1254745 -0.1834946 4
8.5423946 -6.1247792 2.816469 1
1.3969306 -1.0089813 -0.46173316 7
8.453846 -6.1060829 0.18202861 4
1.5939742 -1.1513029 -0.45395124 3
8.4484043 -6.1021519 0.54617804 2
1.9289252 -1.3932329 -0.46252102 2
3.6179156 -2.6131647 0.39045772 8
2.3972201 -1.7314751 -0.46836478 1
8.4806185 -6.1254196 1.2845029 1
3.0366085 -2.1932955 -0.45993489 42
8.4519224 -6.1046929 1.6513222 5
4.423871 -3.1952937 -0.47743917 96
7.8574367 -5.6753054 -0.50797278 9
8.4408779 -6.0967159 -0.18174936 4
1.391838 -1.0127149 -0.46121553 6
8.4163113 -6.1237898 0.18167955 4
1.6025518 -1.1660323 -0.45755044 3
8.4044418 -6.1151538 0.5447126 4
1.9288126 -1.4034228 -0.46366587 1
3.6361599 -2.6457052 0.39342102 6
2.3847723 -1.7351836 -0.46711332 1
8.4270821 -6.1316266 1.2796282 5
3.0225134 -2.1992102 -0.45895994 48
8.5040379 -6.1876202 1.6657141 9
4.4094682 -3.2083719 -0.47709054 49
7.8682632 -5.7250247 -0.50996155 4
8.2727604 -6.0193405 2.3619862 16
8.4163113 -6.1237898 -0.18167955 4
8.2854195 -6.0285516 2.7455525 24
1.382062 -1.0129988 -0.45914498 6
8.3948841 -6.153131 0.18167955 4
1.6236199 -1.1900517 -0.46474889 3
8.3830452 -6.1444535 0.5447126 4
1.9080675 -1.398541 -0.45984969 1
3.6751113 -2.693717 0.39865038 2
2.3850739 -1.7481685 -0.46836478 1
8.404026 -6.1598315 1.2793844 5
3.0132172 -2.2085736 -0.45871621 45
8.5206242 -6.2452941 1.673223 9
4.4271674 -3.2449455 -0.48022816 14
9.1571407 -6.7118359 2.2068968 17
7.8949471 -5.786696 -0.51299703 4
8.4513111 -6.1944895 2.4191236 8
8.3755293 -6.1389451 -0.18126069 4
8.4341612 -6.1819201 2.801975 26
1.3769634 -1.0166695 -0.45862734 7
8.3476152 -6.1633925 0.18112108 4
1.6225914 -1.1980269 -0.46564868 3
8.3551188 -6.1689329 0.54429394 4
1.9252856 -1.4215187 -0.46519232 1
8.3491726 -6.1645432 0.90798855 3
2.3916702 -1.76587 -0.47086775 1
8.348937 -6.1643686 1.2742659 5
3.0022955 -2.2167201 -0.45822874 45
8.4447412 -6.235105 1.6625855 7
4.4206219 -3.2639296 -0.48075107 2
9.1620855 -6.76475 2.2137659 7
7.8875537 -5.82371 -0.51383442 4
8.5189962 -6.2899308 2.444768 8
8.3604841 -6.1728945 -0.18140031 4
8.4078684 -6.2078805 2.800422 22
1.384257 -1.0295402 -0.46225083 7
8.3003769 -6.1733994 0.1805626 4
1.6027628 -1.1920538 -0.46114966 3
8.320713 -6.1885247 0.54345655 4
1.9266131 -1.4329171 -0.46671879 1
8.321209 -6.1888933 0.90729129 3
2.3696413 -1.762419 -0.46773905 1
8.3162184 -6.1851816 1.2725596 5
2.9993179 -2.2307405 -0.45895994 48
8.445116 -6.2810493 1.6669656 5
4.3964119 -3.2698283 -0.47935659 2
8.9446516 -6.6525784 2.166827 19
7.8703823 -5.853591 -0.51404375 4
8.5767365 -6.3789415 2.4677131 11
8.3228407 -6.1901069 -0.18105127 4
8.424901 -6.2660141 2.8133631 17
1.368286 -1.0250994 -0.45810971 6
8.2739754 -6.1987386 0.18045788 4
1.6017113 -1.199978 -0.46204945 3
8.2846746 -6.2067542 0.5425145 4
1.924742 -1.4419878 -0.46748203 1
8.2899876 -6.2107344 0.90624541 3
2.3634748 -1.7706798 -0.46773905 1
8.2914 -6.2117925 1.2720722 5
2.97086 -2.2257237 -0.45579135 46
8.5590982 -6.4123483 1.6938723 5
4.4104838 -3.3042684 -0.48214558 2
8.9669409 -6.7178974 2.1778939 26
7.8674841 -5.8942008 -0.51519513 2
8.6136818 -6.4532413 2.4848094 7
8.3011827 -6.219121 -0.18105127 8
8.402977 -6.2953844 2.8133631 12
1.3801198 -1.0415063 -0.4632861 7
8.2554798 -6.2299914 0.18052769 4
1.6068459 -1.212605 -0.46474889 3
8.2454224 -6.2224011 0.54136312 4
1.9008915 -1.4345063 -0.46290264 2
8.2603064 -6.2336335 0.90537387 3
2.36201 -1.7824888 -0.46867767 6
8.2538204 -6.2287393 1.2696348 5
2.9630725 -2.2360804 -0.45579135 61
8.8599024 -6.6861181 1.7580105 19
4.3989229 -3.3196437 -0.48214558 2
8.9371681 -6.7444267 2.1763673 24
7.8436732 -5.9192214 -0.5149858 2
8.6019917 -6.4914865 2.4879587 1
8.3592319 -6.3082881 -0.18279651 4
8.3855772 -6.3281689 2.8149159 11
1.370324 -1.0416412 -0.46121553 7
8.3005457 -6.3095956 0.18199369 2
1.5855378 -1.2052343 -0.45979995 3
8.2793026 -6.293448 0.54502666 14
1.8927467 -1.4387567 -0.4621394 1
8.262289 -6.2805147 0.90798855 1
2.9580841 -2.2485647 -0.58850646 15
8.2557335 -6.2755318 1.2732909 1
2.9505081 -2.242806 -0.45506012 64
8.8852606 -6.7540617 1.7677095 28
4.3302069 -3.2915733 -0.47587034 6
8.905756 -6.7696414 2.1744592 26
7.8388638 -5.9586515 -0.51603252 2
8.6009998 -6.5379834 2.4942572 1
8.2988424 -6.3083005 2.7931752 11
1.36226 -1.0426571 -0.45966262 7
8.3430948 -6.3857026 0.18338989 2
1.5923648 -1.2187765 -0.46294928 3
8.3313446 -6.3767085 0.54984158 2
1.8754932 -1.4354794 -0.45908645 1
8.3268528 -6.3732705 0.91740137 1
2.9380622 -2.2487566 -0.58600348 16
8.3294592 -6.3752656 1.2879152 1
2.9446309 -2.2537844 -0.45530388 74
8.7530098 -6.6994462 1.7458086 9
4.3161035 -3.3034928 -0.47552174 15
8.8006306 -6.7358947 2.1542335 19
7.8412652 -6.0016084 -0.51749796 2
8.6597414 -6.6280599 2.5176523 1
8.4748945 -6.4865808 -0.18628699 4
8.2748089 -6.3334374 2.7921398 11
1.3601421 -1.0485854 -0.46018025 7
8.3999386 -6.4758334 0.18513513 2
1.5726674 -1.2124293 -0.45845026 3
8.3912868 -6.4691629 0.5552845 2
1.889129 -1.4564016 -0.46366587 1
8.3708267 -6.4533896 0.92472243 1
2.9004703 -2.236083 -0.58005899 11
8.3763285 -6.4576306 1.2986398 1
2.9367456 -2.2640493 -0.45530388 85
8.7280064 -6.7287531 1.7454958 2
4.2982345 -3.3136728 -0.47482449 18
8.7972775 -6.7821565 2.1591947 10
7.8297586 -6.0362592 -0.51812595 2
8.2603006 -6.3681808 2.794728 9
1.3671545 -1.0616207 -0.46380374 7
8.4499369 -6.561532 0.18674076 2
1.5684257 -1.2179115 -0.45845026 3
8.4443741 -6.5572124 0.56030875 2
1.8840337 -1.4629869 -0.46366587 1
8.4332275 -6.5485568 0.93413526 2
2.3730941 -1.8427514 -0.47587365 9
8.3976364 -6.5209203 1.3054644 1
2.9021707 -2.2535892 -0.45116031 49
8.8651676 -6.8839669 1.7777213 12
4.2803469 -3.3237684 -0.47412723 18
8.8712406 -6.8886819 2.1832366 8
7.8244152 -6.0758033 -0.51917267 2
8.5824747 -6.6644502 2.5086541 1
8.2227631 -6.3851275 2.7895517 9
1.355832 -1.0604358 -0.46121553 6
8.4773855 -6.6304107 0.1878577 2
1.5856547 -1.2401868 -0.46474889 3
8.4843626 -6.6358676 0.56449562 2
1.8851012 -1.4743927 -0.46519232 1
8.466815 -6.6221428 0.94041044 2
2.8832328 -2.2550607 -0.57974613 10
8.4530048 -6.611342 1.3176514 1
2.9005411 -2.2685978 -0.45213526 60
8.8893194 -6.9525967 1.7874202 4
4.2624412 -3.3337793 -0.47343001 9
9.2569447 -7.2401266 2.2843652 26
9.017683 -7.0529933 -0.5999794 2
8.177599 -6.3959389 2.7817872 12
1.3460519 -1.0603801 -0.45914498 6
8.5358725 -6.724309 0.18967275 2
1.5629464 -1.2312433 -0.45935005 2
8.4956636 -6.6926336 0.56679839 2
1.8706899 -1.4736745 -0.46290264 1
8.4968605 -6.6935768 0.94633704 2
2.3337922 -1.8384929 -0.47055486 6
8.520318 -6.7120562 1.3317882 1
2.8941638 -2.279937 -0.45237899 71
8.847928 -6.9701371 1.7839786 4
4.2413874 -3.3412402 -0.47238412 2
9.4475241 -7.4424815 2.3377919 24
9.0134048 -7.1004949 -0.60134012 4
9.0039787 -7.0930696 -0.20007439 37
8.1415653 -6.4136858 2.7771285 11
1.3438557 -1.066273 -0.45966262 7
9.5885315 -7.6079545 0.21365236 15
1.5739049 -1.248804 -0.46384907 3
9.7646008 -7.7476549 0.65325743 23
1.880914 -1.4923981 -0.46671879 1
9.7564001 -7.7411485 1.0896211 22
2.3381927 -1.8552228 -0.47274494 3
9.7735395 -7.7547479 1.5318977 16
2.8737471 -2.2801549 -0.45042908 57
9.7411795 -7.7290716 1.96951 4
2.9498634 -2.3405488 -0.3294487 1
9.706008 -7.7011652 2.4083912 4
8.9932585 -7.1356387 -0.60165417 2
8.9588003 -7.1082978 -0.19962062 28
8.1206417 -6.4432669 2.7776461 11
1.3491805 -1.0781937 -0.46276847 7
9.6462727 -7.7087913 0.21553722 16
1.5451787 -1.2348251 -0.45665064 3
9.7967863 -7.8290734 0.65723497 2
1.8695583 -1.4940522 -0.46519232 1
9.7604485 -7.800034 1.0931073 2
2.3162708 -1.8510413 -0.46961626 1
9.7371063 -7.7813807 1.5304352 8
2.8642197 -2.288933 -0.45018536 45
8.9934893 -7.1871209 1.8234001 2
2.8763049 -2.2985909 -0.32212761 7
9.7695541 -7.8073111 2.4309065 2
8.445962 -6.7495661 2.4960568 1
8.0437717 -6.4281569 2.759011 16
1.3454086 -1.0828966 -0.46276847 7
1.5469313 -1.2450988 -0.45845026 3
4.0192485 -3.2350249 -1.0028921 3
2.3036401 -1.8541609 -0.46836478 1
2.854666 -2.2976725 -0.44994161 55
9.0098953 -7.2519121 1.8318475 13
2.8698158 -2.3098662 -0.32230192 19
9.4853039 -7.6345606 2.3667948 7
4.0095139 -3.22719 -0.26973951 58
8.3889523 -6.7521257 2.4861591 1
4.0253091 -3.2399035 -0.090194039 22
7.9972048 -6.4368148 2.7507288 15
1.3446218 -1.0900195 -0.46380374 5
3.9937813 -3.2375641 0.089740276 41
1.5546862 -1.2603084 -0.46204945 3
3.9796064 -3.2260733 0.26848346 13
1.8804336 -1.524376 -0.47053498 1
9.8698149 -8.0009785 1.1115843 19
2.2971537 -1.8621908 -0.46836478 1
2.8327498 -2.2963724 -0.44774798 53
9.0597172 -7.3442717 1.8471782 11
2.8555446 -2.314851 -0.3216047 31
9.5973797 -7.7801285 2.4015219 8
3.981158 -3.2273312 -0.26858813 12
8.3441381 -6.7641869 2.4798603 1
8.0077028 -6.4914551 2.7621169 2
1.3243479 -1.081267 -0.45810971 5
3.9840047 -3.2527499 0.089775182 57
1.5593345 -1.2731223 -0.46474889 3
1.8598934 -1.5185144 -0.46671879 1
2.3120618 -1.8876883 -0.47274494 3
2.8262544 -2.307502 -0.4479917 50
2.8320136 -2.3122041 -0.31986156 37
9.6644506 -7.8905635 2.4251823 8
8.818491 -7.1998782 -0.59662992 19
8.341609 -6.8105264 2.4861591 1
8.0523348 -6.5743475 2.7854106 1
1.3312017 -1.0942398 -0.46173316 5
1.5505878 -1.2745739 -0.46339917 3
1.8396813 -1.512207 -0.46290264 1
2.6933937 -2.2139535 -0.55221367 3
2.8185868 -2.3168616 -0.4479917 50
9.7557316 -8.0191526 2.0001712 9
2.808939 -2.3089311 -0.31811845 30
9.7004137 -7.9736819 2.4408286 8
8.8593693 -7.2823486 -0.60102612 2
8.2798376 -6.8059773 2.4744616 1
8.80375 -7.23663 -0.19892253 24
8.1110773 -6.6672568 2.8133631 1
1.3348143 -1.1050395 -0.46432137 5
9.9429379 -8.2313614 0.22531056 18
1.541626 -1.2762506 -0.46204945 3
1.8434651 -1.5261312 -0.46519232 1
2.7678163 -2.2913647 -0.56910861 6
2.8288314 -2.3418767 -0.45091656 9
9.8250637 -8.1337776 2.0201948 6
2.8054664 -2.3225336 -0.31864139 35
9.6074934 -7.95366 2.4244192 2
8.9000492 -7.3679957 -0.60552704 4
8.2620344 -6.8398085 2.4762611 1
8.8785591 -7.3502045 -0.20119134 12
8.1800165 -6.7719088 2.8454566 1
1.3220463 -1.1022694 -0.46121553 6
10.007833 -8.3441334 0.22743976 15
1.5266844 -1.2728885 -0.45890015 3
1.8682847 -1.5577012 -0.47282469 1
2.7355258 -2.2807724 -0.56410271 3
2.8435097 -2.370805 -0.45457265 5
10.150121 -8.4627657 2.0930932 4
2.7988725 -2.3335881 -0.31881571 31
9.4243574 -7.8576536 2.3851125 6
8.9739866 -7.4821525 -0.61233068 2
8.2351151 -6.8661108 2.4753613 1
8.9281063 -7.4438987 -0.20290168 12
8.218647 -6.8523798 2.8671973 19
1.3285468 -1.1155735 -0.46483901 5
10.095034 -8.4767456 0.23009253 16
1.5237243 -1.2794632 -0.45935005 3
10.157681 -8.5293512 0.69512618 5
1.8417869 -1.5465386 -0.46748203 1
10.168009 -8.538023 1.1616118 17
2.6957793 -2.2636316 -0.55753243 3
10.240225 -8.5986624 1.6418238 2
2.8580201 -2.3998642 -0.45822874 4
10.232464 -8.5921459 2.1162455 4
2.7861321 -2.3395002 -0.31829277 26
9.4961033 -7.9738269 2.4102993 6
9.0151148 -7.5699434 -0.61693627 2
8.2528849 -6.929903 2.4879587 1
8.9725122 -7.5341706 -0.20450729 8
1.3143188 -1.1114721 -0.46121553 6
10.163105 -8.5945721 0.23232643 16
1.5460329 -1.3074244 -0.46744829 3
10.338304 -8.7427311 0.70957088 3
1.8423736 -1.5580291 -0.46900851 1
10.386121 -8.7831688 1.1900245 2
2.6833363 -2.269201 -0.55659384 3
10.317766 -8.7253637 1.6591293 4
2.8011212 -2.3688076 -0.45042908 9
10.300452 -8.710722 2.1365819 6
2.7703421 -2.3427787 -0.31742123 30
9.5536585 -8.0791855 2.4320514 8
9.0816631 -7.6800365 -0.62332124 4
8.3298283 -7.0442367 2.5185521 1
9.0408268 -7.6455021 -0.2066714 16
8.3240194 -7.0393238 2.9210317 1
1.3133725 -1.1185584 -0.46225083 5
10.224385 -8.7077904 0.23442072 17
1.5533285 -1.3229214 -0.47104752 3
10.414161 -8.8694153 0.7168979 3
