# .PCD v0.7 - Point Cloud Data file format
VERSION 0.7
FIELDS x y z intensity
SIZE 4 4 4 4
TYPE F F F F
COUNT 1 1 1 1
WIDTH 1355
HEIGHT 1
VIEWPOINT 0 0 0 1 0 0 0
POINTS 1355
DATA ascii
1.3988749 0.67052877 -0.41566339 9
2.4325702 1.1660144 0.047086593 50
1.5903476 0.76230824 -0.40716141 3
2.4188001 1.1594139 0.14057438 49
1.8943051 0.90800548 -0.40833125 17
2.4254792 1.1626155 0.23532051 57
2.1999178 1.0544962 -0.38639313 36
2.3843746 1.1429126 0.32465994 52
2.4040654 1.1523511 -0.32734105 40
2.3477664 1.1253651 0.41236126 42
1.9870963 0.95248348 -0.1927885 38
2.4254186 1.1625865 0.52281666 48
2.4638262 1.1809965 -0.14319117 51
2.3161085 1.1101904 0.59297097 74
2.4686348 1.1833014 -0.04778469 49
2.4441116 1.1715466 0.72624624 67
1.4151667 0.67227328 -0.41980448 9
2.4583004 1.1678127 0.04750545 50
1.5965194 0.75842464 -0.40806121 4
2.4408729 1.1595339 0.1416211 49
1.8903698 0.89801788 -0.40680477 16
2.4457195 1.1618361 0.2368893 49
2.2196438 1.0544392 -0.38920894 36
2.4349692 1.1567292 0.33099714 54
2.4672441 1.1720613 -0.33538443 52
2.456953 1.1671726 0.43082052 54
1.9886093 0.94468653 -0.1926142 24
2.4968486 1.1861249 0.53731811 44
2.4589133 1.1681039 -0.14266782 55
2.5153542 1.194916 0.64291012 70
2.4763629 1.1763933 -0.047854498 48
2.5144947 1.1945077 0.74591649 68
1.4175048 0.66732931 -0.41980448 9
2.4659803 1.160928 0.047575261 47
1.6062095 0.75616729 -0.40986082 3
2.4394846 1.1484544 0.14130709 45
1.8739541 0.88221538 -0.40260699 19
2.4497602 1.1532919 0.2368893 45
2.2304599 1.0500503 -0.39046043 72
2.442584 1.1499135 0.33148462 55
2.4533601 1.1549867 -0.33294705 45
2.4377782 1.1476511 0.42675322 44
2.0225394 0.95216596 -0.19557749 10
2.5027499 1.1782383 0.53769976 43
2.462976 1.1595136 -0.14266782 45
2.5212729 1.1869586 0.64336002 59
2.4732172 1.164335 -0.047714878 50
2.5326319 1.192306 0.75005758 66
1.4128227 0.65911025 -0.41773394 9
2.4700177 1.152313 0.047575261 40
1.6123713 0.7522037 -0.41076061 4
2.4489086 1.1424652 0.1416211 43
1.9232805 0.8972491 -0.41252905 16
2.4609933 1.148103 0.23758656 47
2.2430625 1.0464338 -0.39202476 94
2.453779 1.1447374 0.33245957 54
2.4435596 1.1399698 0.42706609 45
2.4014094 1.1203059 -0.23183428 4
2.5193017 1.175305 0.54037106 44
2.5236349 1.1773266 0.64291012 57
2.5175204 1.1744741 0.74436355 62
1.4010864 0.64768958 -0.41359285 10
1.6185249 0.74820632 -0.41166043 4
1.9014519 0.87899691 -0.40718639 16
2.3370342 1.0803564 -0.31612909 2
2.4331794 1.1248021 0.42456314 14
2.4143479 1.1160967 -0.23270583 3
2.420249 1.1188246 -0.13973701 3
2.5330358 1.1709634 0.64425981 20
2.4268315 1.1218677 -0.046667736 3
1.4103643 0.64601296 -0.41566339 9
2.4107342 1.1042293 0.046283782 3
1.6211268 0.7425521 -0.41166043 4
2.4277713 1.112033 0.13994634 4
1.8884444 0.86499608 -0.40375182 21
2.4182291 1.1076623 0.23270583 3
2.2054145 1.0101833 -0.38420305 6
2.4256153 1.1110456 0.3275848 4
2.3101099 1.0581386 -0.31198552 2
2.4317031 1.113834 0.42362455 3
2.3783782 1.0894088 -0.22887099 2
2.4506938 1.1225327 0.52396148 3
2.4041655 1.1012205 -0.13858561 2
2.5069885 1.1483183 0.63661146 3
2.4198244 1.1083931 -0.046458308 2
2.4958003 1.1431935 0.73556376 4
1.4196473 0.64427936 -0.41773394 7
2.3981855 1.08837 0.045969639 2
1.6059635 0.72883534 -0.40716141 4
2.413451 1.0952978 0.13889962 2
1.8914523 0.85839891 -0.40375182 28
2.4039381 1.0909805 0.23096272 3
2.1981347 0.99758071 -0.38232583 3
2.3951335 1.0869849 0.32295376 3
2.2920976 1.040224 -0.30906066 1
2.4013991 1.0898284 0.41768003 3
2.3694663 1.0753363 -0.22765081 1
2.434932 1.1050466 0.51976371 2
2.3370645 1.0606313 -0.13450341 1
2.4648433 1.1186213 0.62491405 2
2.3635876 1.0726683 -0.045306448 2
2.4698696 1.1209024 0.7267639 3
1.4323468 0.64432323 -0.42083976 9
2.3324819 1.0492377 0.044643257 2
1.6190348 0.72830248 -0.40986082 3
2.3423903 1.0536948 0.13460808 1
1.9318877 0.86903548 -0.41176581 14
2.3693852 1.0658382 0.22730218 2
2.1762097 0.97894061 -0.37794566 2
2.353466 1.0586772 0.31686029 2
2.2810516 1.0261024 -0.30711076 1
2.3779774 1.0697033 0.41298699 2
2.3475811 1.0560299 -0.22521044 1
2.34548 1.0550848 0.49991956 1
2.3442116 1.0545142 -0.13471276 1
2.3867879 1.0736666 0.60421854 1
2.3379529 1.0516987 -0.044747971 1
2.3890066 1.0746646 0.70191723 2
1.427529 0.63617402 -0.41876921 9
2.3069057 1.0280656 0.04408478 2
1.6215671 0.72264653 -0.40986082 3
2.2895007 1.0203091 0.13136324 1
1.9223567 0.85669255 -0.40909448 11
2.3057566 1.0275536 0.22085266 1
2.1417229 0.9544524 -0.37137541 1
2.3535209 1.0488394 0.31637281 2
2.2556086 1.0052052 -0.30321091 1
2.3203502 1.0340571 0.40234944 1
2.3221354 1.0348526 -0.22242145 1
2.336596 1.041297 0.49724823 1
2.3369324 1.0414469 -0.13408472 1
2.3228817 1.0351852 0.58712226 2
2.2941198 1.0223677 -0.043840446 1
2.3503938 1.047446 0.68949395 2
1.4156026 0.62494546 -0.41462812 9
2.3141389 1.0216219 0.044154588 2
1.6347762 0.72170401 -0.41256022 3
2.2820854 1.0074713 0.13073522 1
1.9091712 0.84284103 -0.40565991 15
2.2874572 1.0098429 0.21876091 2
2.0492647 0.904688 -0.35479337 2
2.2827115 1.0077478 0.30637953 1
2.1574075 0.95242983 -0.28956157 1
2.2950318 1.0131867 0.39734355 1
2.1835649 0.96397746 -0.20882516 1
2.3114803 1.0204482 0.49114236 1
2.1724577 0.95907396 -0.1244549 1
2.2801297 1.0066079 0.57542479 1
2.268405 1.0014318 -0.043281969 1
2.3204572 1.0244113 0.67965883 1
1.4213154 0.62154835 -0.41566339 7
2.165621 0.94703698 0.041257489 1
1.6230017 0.70974678 -0.40896103 1
2.2361801 0.97789276 0.12790908 1
1.9085041 0.83459842 -0.40489668 23
2.1741381 0.9507615 0.20760497 1
2.0234518 0.88486564 -0.34978747 8
2.2680275 0.9918198 0.30394214 1
2.0315852 0.88842237 -0.27225611 3
2.2786458 0.99646318 0.39390197 1
2.0390532 0.89168817 -0.19470593 2
2.300638 1.0060805 0.48808941 1
2.0348873 0.88986641 -0.11639517 2
2.2729166 0.99395782 0.57272536 1
2.022712 0.88454217 -0.038534913 2
2.1948085 0.95980072 0.64187121 1
1.4375492 0.62297696 -0.41980448 9
2.0146253 0.87305892 0.038325485 3
1.6217703 0.70281106 -0.40806121 1
2.015836 0.87358356 0.1151391 2
1.9382819 0.8399747 -0.41062096 12
2.0182335 0.87462252 0.19243988 2
2.0318127 0.88050717 -0.35072607 8
2.0345201 0.88168049 0.27225611 1
1.9999132 0.86668324 -0.26762506 6
2.040875 0.88443452 0.35229042 1
2.0054367 0.86907691 -0.1912197 2
2.0229466 0.87666506 0.42855701 1
1.9975102 0.86564189 -0.11409239 4
2.0973942 0.90892762 0.52773517 1
2.0348084 0.88180542 -0.038709439 4
2.0756721 0.8995142 0.6061542 1
1.4397151 0.61795521 -0.41980448 9
2.00296 0.85971141 0.038046245 16
1.6815177 0.72174186 -0.42245808 1
1.9876723 0.85314965 0.11335968 7
1.9339858 0.83010632 -0.40909448 12
1.9956421 0.85657042 0.18999952 7
2.0403194 0.87574685 -0.35166469 7
2.021168 0.86752665 0.27006248 2
1.9956297 0.85656512 -0.26665011 7
2.00583 0.86094332 0.34572017 4
2.0139508 0.86442888 -0.19174263 7
2.016974 0.86572653 0.42664891 2
2.0023551 0.85945177 -0.11419705 8
1.9984812 0.85778904 0.50209075 3
2.0084727 0.86207759 -0.038150959 9
1.9989139 0.85797477 0.58286047 3
1.4347519 0.6099028 -0.41773394 9
2.0077891 0.85349685 0.038081151 13
1.6481583 0.70062041 -0.41346005 1
2.0071809 0.85323834 0.11430173 15
1.926031 0.8187421 -0.40680477 10
1.9931191 0.84726077 0.18947658 14
2.0451818 0.86939228 -0.35197756 8
2.0059149 0.85270023 0.26762506 9
2.0132225 0.85580659 -0.26860005 7
1.981554 0.84234452 0.34102714 7
2.0096214 0.85427582 -0.19104539 7
1.9983023 0.84946412 0.42206949 7
2.0090191 0.8540197 -0.1144064 8
1.9853224 0.84394646 0.49804163 5
2.0022681 0.85114992 -0.037976436 7
1.9841179 0.84343439 0.5776841 7
1.422628 0.59889442 -0.41359285 8
2.0015409 0.8426038 0.037906628 8
1.6398175 0.69032633 -0.41076061 1
1.99358 0.83925241 0.11335968 9
1.9270678 0.81125224 -0.40642315 13
1.9979007 0.84107137 0.18965089 10
2.0391011 0.85841572 -0.3504132 7
1.9979018 0.84107178 0.26616263 7
2.0198567 0.85031438 -0.26908752 7
1.9826616 0.83465606 0.34071428 7
2.0089185 0.84570962 -0.19069676 7
1.9903986 0.8379131 0.41977978 7
2.0138288 0.84777665 -0.11451107 7
1.9900522 0.8377673 0.49849153 7
2.008913 0.8457073 -0.038046245 7
1.9817083 0.83425474 0.57613117 7
1.4318423 0.59689826 -0.41566339 7
2.0026243 0.8348425 0.037871722 7
1.6134379 0.67260075 -0.40356219 1
2.0075583 0.8368994 0.11398771 9
1.9407604 0.80905312 -0.40871286 8
1.9989855 0.83332562 0.18947658 8
2.0384386 0.84977257 -0.34978747 7
2.0026579 0.83485651 0.26640639 8
2.0301416 0.84631383 -0.27006248 7
1.991033 0.83001041 0.34165287 7
2.0155365 0.84022528 -0.19104539 7
1.9914992 0.83020478 0.41939816 7
2.0130887 0.83920491 -0.11430173 7
2.0019581 0.83456481 0.50074106 7
2.0155444 0.84022862 -0.038116056 7
1.9917408 0.83030552 0.57820177 7
1.4446313 0.5963192 -0.41876921 9
2.0073745 0.82860994 0.037906628 8
1.6355903 0.67514378 -0.4085111 3
2.0012367 0.82607633 0.11346436 9
1.9453874 0.80302274 -0.40909448 11
2.0000405 0.82558262 0.18930228 8
2.0377405 0.8411445 -0.34916171 8
1.9927154 0.82255894 0.2647002 7
2.0275788 0.83694988 -0.26933125 7
1.9993958 0.82531649 0.34259146 7
2.0295069 0.8377459 -0.19209126 7
1.9925703 0.82249904 0.41901654 7
2.0049288 0.82760042 -0.11367369 7
2.0030577 0.82682806 0.50029117 7
2.0332522 0.83929187 -0.038395293 6
2.0053413 0.82777065 0.58130759 7
1.4467041 0.59127283 -0.41876921 9
2.0232122 0.82689363 0.038150959 7
1.6433487 0.67164212 -0.40986082 3
2.002259 0.81833005 0.11335968 9
1.9409093 0.79325616 -0.40756801 11
2.0084431 0.82085747 0.18982521 9
2.057121 0.84075236 -0.35197756 8
1.9992496 0.81710005 0.26518768 8
2.0139499 0.82310814 -0.26713759 7
1.9931217 0.81459558 0.34102714 7
2.0397961 0.83367157 -0.1927885 7
2.0172372 0.82445163 0.42359596 7
2.0152009 0.82361937 -0.11409239 8
2.0023239 0.81835651 0.49939135 7
2.0213611 0.82613707 -0.038116056 7
2.0010655 0.81784219 0.57923704 7
1.4308512 0.57897305 -0.41359285 8
2.02794 0.82057631 0.038185865 8
1.6637478 0.67321128 -0.41435984 5
2.003252 0.81058669 0.11325501 8
1.932747 0.78205788 -0.4052783 11
2.0057554 0.81159967 0.18930228 8
2.0618746 0.83430749 -0.35229042 7
2.0076101 0.81235015 0.26591891 8
2.0204911 0.81756234 -0.26762506 7
1.9959531 0.80763334 0.34102714 7
2.0279183 0.82056761 -0.19139402 8
2.014643 0.81519592 0.42245111 7
2.0254693 0.81957656 -0.11451107 7
1.9979424 0.8084383 0.49759173 7
2.0316472 0.8220765 -0.038255677 7
2.0003264 0.80940294 0.57820177 7
1.4364501 0.57541168 -0.41462812 9
2.0215104 0.80977452 0.038011342 8
1.6588515 0.66450101 -0.41256022 5
2.0209014 0.80953062 0.11409239 8
1.9445775 0.77895683 -0.40718639 8
2.0048771 0.80311161 0.18895365 8
2.0629406 0.82637054 -0.35197756 8
2.0196471 0.80902815 0.26713759 8
2.0325465 0.81419533 -0.26884377 7
2.0024276 0.80213034 0.34165287 7
2.0307703 0.81348389 -0.19139402 8
2.0174763 0.80815858 0.42245111 8
2.0394418 0.81695753 -0.1151391 7
2.0170333 0.80798107 0.50164086 7
2.0345044 0.81497967 -0.038255677 7
2.0049329 0.8031339 0.57871938 8
1.4528165 0.57609087 -0.41876921 7
2.0150304 0.79902768 0.037836816 8
1.6502919 0.65439653 -0.40986082 4
2.0200019 0.80099899 0.11388304 8
1.9564097 0.77578259 -0.40909448 9
2.0280414 0.80418694 0.19087107 8
2.0566311 0.8155238 -0.3504132 8
2.0243042 0.80270511 0.26738134 8
2.0409122 0.80929065 -0.269575 7
2.016233 0.79950458 0.34353009 7
2.0373018 0.80785906 -0.19174263 7
2.0075099 0.7960456 0.41977978 7
2.0348547 0.8068887 -0.11472042 7
2.0216529 0.80165368 0.50209075 7
2.0336192 0.80639875 -0.038185865 7
2.0113158 0.79755467 0.57975465 8
1.4583153 0.57268226 -0.41980448 9
2.0213916 0.79380304 0.037906628 8
1.6597084 0.65176964 -0.41166043 4
2.026365 0.79575616 0.11409239 8
1.9553168 0.76785541 -0.40833125 11
2.0251334 0.79527247 0.19034815 8
2.0703564 0.81303155 -0.35229042 6
2.0140209 0.79090863 0.26567516 8
2.0269549 0.79598784 -0.26738134 7
2.0207119 0.79353613 0.34384295 7
2.049242 0.80474001 -0.1926142 7
2.0211031 0.79368979 0.42206949 7
2.0338011 0.79867637 -0.11451107 7
2.0152307 0.79138368 0.49984124 7
2.0418661 0.8018434 -0.038290579 7
2.0175457 0.79229283 0.58078992 8
1.4747103 0.57318717 -0.42394561 7
2.0297418 0.78891557 0.038011342 7
1.6692389 0.64879614 -0.41346005 4
2.0160992 0.78361309 0.11335968 9
1.9488357 0.75746924 -0.40642315 20
2.0390394 0.79252934 0.19139402 8
2.0731816 0.80579972 -0.35229042 7
2.0334218 0.79034591 0.26786882 8
2.0315714 0.78962672 -0.26762506 7
2.0087399 0.78075266 0.34134001 7
2.0538957 0.79830372 -0.1927885 7
2.0256913 0.78734124 0.42245111 7
2.044023 0.79446644 -0.11492976 7
2.0216136 0.78575635 0.50074106 7
2.0558357 0.79905772 -0.038500007 7
2.025701 0.78734505 0.58234286 19
1.4621795 0.56274265 -0.41980448 7
2.0454104 0.78720814 0.038255677 8
1.6677438 0.64185727 -0.41256022 3
2.0317345 0.78194481 0.11409239 8
1.9550014 0.7524128 -0.40718639 8
2.0304997 0.78146952 0.19034815 8
2.0850601 0.802468 -0.35385475 8
2.0341787 0.78288549 0.26762506 8
2.0489998 0.78858954 -0.269575 7
2.0168486 0.77621573 0.3422786 7
2.0416563 0.78576332 -0.19139402 7
2.028291 0.7806195 0.42245111 7
2.0503743 0.78911859 -0.1151391 7
2.0169332 0.77624828 0.49894145 8
2.0323467 0.78218037 -0.038011342 7
2.0102715 0.77368438 0.5771665 18
1.4496921 0.55213451 -0.41566339 7
2.0406709 0.77721661 0.038116056 8
1.6736164 0.63741904 -0.41346005 4
2.0381846 0.77626967 0.11430173 7
1.9612852 0.7469815 -0.40794963 12
2.0313532 0.77366787 0.19017383 8
2.0786185 0.79166949 -0.35229042 8
2.0554502 0.7828455 0.27006248 7
2.0610154 0.7849651 -0.27079368 7
2.0195458 0.76917088 0.3422786 7
2.0630059 0.78572321 -0.19313712 7
2.0383422 0.77632976 0.42397758 7
2.0568492 0.78337836 -0.11534845 7
2.0323784 0.77405834 0.50209075 7
2.0537522 0.78219879 -0.038360391 7
2.0093491 0.76528734 0.57613117 10
1.4517062 0.54681742 -0.41566339 7
2.0397632 0.76832217 0.038046245 7
1.6686468 0.62853295 -0.41166043 4
2.0522304 0.7730183 0.11492976 8
1.973196 0.74324822 -0.40985772 9
2.0434978 0.7697289 0.19104539 8
2.0741119 0.78126037 -0.35103893 7
2.0490172 0.77180797 0.26884377 8
2.0638785 0.77740586 -0.27079368 6
2.033443 0.76594156 0.34415582 7
2.0658717 0.77815664 -0.19313712 7
2.0319877 0.76539344 0.42206949 7
2.0410161 0.76879418 -0.11430173 7
2.0370257 0.76729107 0.50254065 7
2.0678332 0.77889544 -0.038569819 7
2.0302191 0.76472723 0.58130759 4
1.4717082 0.54849321 -0.42083976 7
2.0424325 0.76119739 0.038046245 7
1.6744827 0.62406558 -0.41256022 4
2.0399442 0.76027 0.11409239 7
1.9794577 0.73772722 -0.41062096 12
2.0480392 0.76328689 0.1912197 8
2.0934854 0.78022432 -0.35385475 8
2.0461185 0.7625711 0.26811257 7
2.0628595 0.76881033 -0.2703062 7
2.0490613 0.76366782 0.3463459 7
2.0648415 0.76954907 -0.1927885 8
2.0383265 0.75966704 0.42283273 7
2.0586593 0.76724494 -0.1151391 7
2.0451696 0.76221746 0.50389034 6
2.066792 0.77027589 -0.038500007 7
2.040117 0.76033443 0.58337814 7
1.4844892 0.54736263 -0.42394561 7
2.052582 0.75683057 0.038185865 7
1.6839645 0.62091345 -0.41435984 4
2.0463336 0.75452656 0.11430173 7
1.9875469 0.73285067 -0.41176581 7
2.0600379 0.7595796 0.19209126 8
2.0906358 0.77086174 -0.35291615 8
2.045043 0.75405067 0.26762506 7
2.063668 0.76091814 -0.27006248 7
2.0350339 0.75036013 0.34353009 7
2.0787315 0.76647234 -0.19383438 7
2.0520179 0.75662249 0.42512244 7
2.0688207 0.76281804 -0.11555779 7
2.0496464 0.75574803 0.50434029 7
2.0619633 0.76028955 -0.038360391 6
2.050009 0.75588179 0.58544868 7
1.4755015 0.5382055 -0.42083976 9
2.072119 0.75582832 0.038500007 7
1.6934446 0.61770266 -0.41615945 4
2.0452023 0.74601007 0.11409239 7
1.9771823 0.7211991 -0.40909448 11
2.0551896 0.74965316 0.19139402 8
2.10816 0.76897472 -0.3554191 7
2.0607169 0.75166923 0.26933125 8
2.0775011 0.75779146 -0.27152491 7
2.0432081 0.74528271 0.34446868 7
2.0813942 0.75921154 -0.19383438 7
2.0620241 0.75214607 0.42664891 7
2.0639656 0.75285423 -0.1151391 7
2.050441 0.74792105 0.50389034 7
2.0608473 0.75171685 -0.038290579 7
2.0417457 0.74474931 0.58234286 7
1.4628338 0.52780646 -0.41669866 7
2.0691018 0.74655461 0.038395293 8
1.6882582 0.60914207 -0.41435984 4
2.0703382 0.74700075 0.11534845 7
1.9870745 0.71695828 -0.41062096 10
2.0652905 0.74517947 0.19209126 8
2.0959666 0.7562477 -0.35291615 7
2.0689299 0.74649262 0.27006248 8
2.0726645 0.74784011 -0.27054995 7
2.0476551 0.7388165 0.34478155 7
2.0765352 0.7492367 -0.19313712 7
2.05725 0.7422784 0.42512244 7
2.0853679 0.75242364 -0.11618582 7
2.0622046 0.74406606 0.50613987 7
2.0709827 0.74723327 -0.038430199 7
2.0406985 0.73630643 0.58130759 8
1.4792229 0.52789152 -0.42083976 9
2.0641618 0.73663908 0.038255677 7
1.6903743 0.60324526 -0.41435984 5
2.0710521 0.73909807 0.11524378 6
1.9932631 0.71133751 -0.4113842 9
2.0566201 0.73394775 0.19104539 8
2.1060355 0.75158256 -0.35416764 7
2.0603054 0.73526293 0.26860005 7
2.0808711 0.74260217 -0.27128115 6
2.0651054 0.73697585 0.34728453 7
2.0753849 0.74064434 -0.1927885 7
2.0561304 0.73377299 0.4243592 7
2.0729332 0.7397694 -0.11534845 7
2.0629539 0.73620814 0.50568998 7
2.0811119 0.74268812 -0.038569819 7
2.054173 0.73307443 0.58441341 7
1.48816 0.5258162 -0.42291033 9
2.0702367 0.7314831 0.038325485 8
1.6922611 0.5979318 -0.41435984 4
2.0601816 0.72793037 0.11451107 7
1.9973391 0.70572603 -0.41176581 8
2.0701871 0.73146564 0.19209126 7
2.1121111 0.74627876 -0.35479337 8
2.0513749 0.72481865 0.26713759 7
2.0906806 0.73870659 -0.27225611 6
2.0674105 0.73048449 0.34728453 7
2.0852158 0.73677576 -0.19348575 7
2.0584254 0.72730982 0.4243592 7
2.0714808 0.73192269 -0.1151391 6
2.0634193 0.7290743 0.50524008 7
2.0834348 0.73614645 -0.038569819 6
2.0528228 0.72533029 0.58337814 7
1.4753965 0.51552045 -0.41876921 9
2.0841041 0.72820985 0.038534913 7
1.6869792 0.58944988 -0.41256022 4
2.0721374 0.72402859 0.11503443 6
1.9868168 0.69421655 -0.40909448 9
2.0840132 0.72817808 0.19313712 8
2.1258922 0.74281108 -0.35667059 7
2.0726326 0.72420156 0.269575 7
2.0894983 0.73009467 -0.27176863 6
2.0662181 0.72196025 0.34665877 7
2.0952983 0.73212129 -0.19418299 7
2.0702186 0.72335809 0.4262673 6
2.0928776 0.73127544 -0.11618582 7
2.0567534 0.7186532 0.50299054 7
2.0935428 0.7315079 -0.038709439 7
2.0699322 0.72325802 0.58751923 7
1.473624 0.50884831 -0.41773394 7
2.0791984 0.71795559 0.038395293 7
1.7075485 0.58962339 -0.41705924 5
2.0766652 0.71708083 0.1151391 8
1.9930594 0.68821144 -0.40985772 11
2.0753684 0.71663308 0.19209126 7
2.1286006 0.73501432 -0.35667059 7
2.0752728 0.71660012 0.269575 7
2.0865312 0.72048765 -0.27103743 7
2.066983 0.71373761 0.3463459 6
2.0904346 0.72183549 -0.19348575 7
2.0802789 0.71832871 0.42779377 6
2.091768 0.722296 -0.11597648 7
2.0685835 0.71429026 0.50524008 7
2.0924296 0.7225244 -0.038639627 6
2.0616128 0.71188319 0.58441341 7
1.4827042 0.50619799 -0.41980448 9
2.0835843 0.71133953 0.038430199 7
1.6985309 0.57988161 -0.41435984 4
2.0867162 0.71240878 0.11555779 8
1.9973075 0.68188447 -0.41023934 8
2.062773 0.70423454 0.19069676 8
2.1311531 0.72757965 -0.35667059 7
2.0852761 0.71191716 0.27054995 7
2.0909121 0.71384126 -0.27128115 7
2.0750701 0.70843285 0.34728453 7
2.1004837 0.71710902 -0.19418299 7
2.0716259 0.70725691 0.42550406 7
2.1056175 0.71886176 -0.11660451 6
2.0692201 0.70643556 0.50479019 7
2.094939 0.71521604 -0.038639627 6
2.0567722 0.70218587 0.58234286 7
1.4916959 0.50375074 -0.42187503 7
2.0802479 0.70250678 0.038325485 7
1.6856741 0.56925786 -0.41076061 4
2.102313 0.7099582 0.11629049 6
2.0107181 0.67902631 -0.41252905 2
2.0858612 0.70440239 0.1926142 7
2.1260681 0.71798038 -0.3554191 7
2.0876255 0.7049982 0.27054995 7
2.0970292 0.70817387 -0.27176863 6
2.0811512 0.70281178 0.34791026 7
2.0990748 0.70886469 -0.19383438 7
2.07582 0.70101142 0.42588568 6
2.0928516 0.70676309 -0.11576714 6
2.0881681 0.70518142 0.50883931 7
2.0972991 0.70826501 -0.038639627 6
2.0682409 0.698452 0.58493102 6
1.4934452 0.4985407 -0.42187503 9
2.0826874 0.69524109 0.038325485 7
1.683954 0.56213617 -0.40986082 4
2.087728 0.69692373 0.11534845 7
1.9311377 0.64465088 -0.39573786 1
2.1072061 0.70342588 0.19435731 7
2.1248138 0.70930368 -0.35479337 7
2.0825419 0.69519252 0.269575 7
2.0994885 0.70084959 -0.27176863 6
2.0892129 0.6974194 0.34884885 6
2.1053162 0.70279497 -0.19418299 7
2.0894277 0.69749111 0.42817539 6
2.0953059 0.69945335 -0.11576714 7
2.0795259 0.69418573 0.50613987 7
2.114933 0.70600528 -0.038918868 6
2.0834935 0.69551015 0.5885545 7
1.4860035 0.49029803 -0.41928685 7
2.1002936 0.6929794 0.038604721 7
1.7007108 0.56113946 -0.41346005 4
2.0882514 0.68900615 0.11524378 6
1.9949012 0.65820581 -0.40833125 2
2.0964041 0.69169611 0.19313712 7
2.1310287 0.70312029 -0.3554191 8
2.0924964 0.6904068 0.27054995 7
2.101922 0.69351673 -0.27176863 6
2.0878828 0.68888456 0.34822312 7
2.1153247 0.69793886 -0.19488025 7
2.0881209 0.68896312 0.42741215 6
2.1015282 0.69338673 -0.11597648 7
2.0763848 0.68509084 0.50479019 6
2.0983946 0.69235283 -0.038569819 6
2.0895777 0.68944377 0.58958977 7
1.4968892 0.48810244 -0.42187503 7
2.1084032 0.68750358 0.038709439 6
1.7063646 0.55640769 -0.41435984 5
2.0906436 0.68171257 0.11524378 6
1.9934535 0.65002102 -0.40756801 9
2.0969117 0.68375641 0.19296281 7
2.1522505 0.70180124 -0.35854781 6
2.1024427 0.68555999 0.27152491 7
2.1043301 0.68617541 -0.27176863 6
2.0808845 0.67853034 0.34665877 7
2.1063828 0.68684477 -0.19383438 7
2.090513 0.68167001 0.42741215 6
2.111531 0.68852353 -0.11639517 7
2.0843217 0.67965114 0.50613987 7
2.1122057 0.68874347 -0.038779248 6
2.0882983 0.68094778 0.5885545 7
1.4801964 0.47694948 -0.41669866 7
2.1031771 0.67768651 0.038569819 6
1.7045869 0.54925269 -0.41346005 5
2.1063175 0.67869854 0.11597648 7
2.0050535 0.64606917 -0.4094761 8
2.101182 0.67704374 0.19313712 7
2.152807 0.69367838 -0.35823491 8
2.1048231 0.67821693 0.27152491 7
2.1218278 0.68369627 -0.27371854 6
2.0945215 0.67489755 0.34853598 7
2.1106639 0.68009895 -0.19400868 7
2.0947485 0.67497069 0.42779377 7
2.1215258 0.68359888 -0.11681385 7
2.0959556 0.67535967 0.50838935 6
2.1260169 0.68504602 -0.038988676 7
2.0906625 0.67365414 0.5885545 7
1.4892155 0.47412398 -0.41876921 7
2.1017189 0.66912764 0.038500007 6
1.7139213 0.54566395 -0.41525966 5
2.1124802 0.67255378 0.11618582 7
1.9998137 0.63668394 -0.40794963 7
2.1073296 0.67091393 0.19348575 7
2.1552153 0.68615943 -0.35823491 8
2.1071777 0.6708656 0.27152491 7
2.1317677 0.67869437 -0.27469349 6
2.1025114 0.66938001 0.34947461 6
2.116822 0.67393613 -0.19435731 6
2.0914795 0.66586781 0.42664891 7
2.1200926 0.67497736 -0.11660451 6
2.1057279 0.67040402 0.510189 7
2.1245842 0.6764074 -0.038918868 5
2.0966828 0.6675244 0.58958977 7
1.5000757 0.47182092 -0.42135739 7
2.1097643 0.66358721 0.038604721 7
1.7158155 0.53967792 -0.41525966 6
2.1129096 0.66457647 0.11608115 6
2.0263703 0.63735712 -0.41291067 6
2.1153605 0.66534734 0.19400868 7
2.1481755 0.67566872 -0.35667059 4
2.101932 0.66112369 0.27054995 7
2.122762 0.66767532 -0.27323106 6
2.1086037 0.66322213 0.35010034 6
2.1267641 0.66893411 -0.19505455 6
2.1012824 0.66091931 0.42817539 6
2.1186254 0.66637427 -0.11639517 6
2.1043372 0.6618802 0.50928921 7
2.1383779 0.67258704 -0.039128296 6
2.1063716 0.66252005 0.59166032 7
1.5054032 0.4677282 -0.4223927 7
2.1254354 0.66037196 0.038849056 6
1.713967 0.53252888 -0.41435984 5
2.1190312 0.65838224 0.11629049 6
2.0023348 0.62212473 -0.40756801 3
2.123378 0.65973276 0.19453162 7
2.1410887 0.66523552 -0.35510623 1
2.1118097 0.65613848 0.27152491 7
2.117497 0.65790546 -0.27225611 6
2.1127925 0.65644383 0.3504132 7
2.134794 0.66327971 -0.19557749 7
2.1073263 0.65474546 0.42893863 6
2.1247532 0.66016001 -0.11660451 6
2.1029129 0.65337425 0.50838935 6
2.1254354 0.66037196 -0.038849056 6
2.1160507 0.65745616 0.59373087 7
1.4977123 0.45989814 -0.41980448 7
2.1390831 0.65684211 0.039058484 6
1.7343525 0.53256261 -0.41885886 4
2.1231122 0.6519379 0.11639517 7
1.9987566 0.61375242 -0.40642315 1
2.1217449 0.65151805 0.19418299 7
2.1243994 0.6523332 -0.35197756 1
2.1329503 0.6549589 0.27396229 7
2.1348481 0.6555416 -0.27420601 7
2.1017392 0.64537501 0.34822312 6
2.131268 0.65444231 -0.19505455 6
2.1057324 0.64660114 0.42817539 6
2.1460235 0.65897322 -0.11765123 7
2.1069307 0.64696914 0.50883931 7
2.1161439 0.64979821 -0.038639627 6
2.1145258 0.64930135 0.59269559 7
1.5067033 0.45690987 -0.42187503 7
2.1298811 0.6458894 0.038849056 6
1.7287413 0.52424324 -0.41705924 5
2.1349313 0.64742094 0.11691853 7
1.9708266 0.59765589 -0.40031728 1
2.1220994 0.64352959 0.19400868 7
2.1285539 0.64548695 -0.35229042 2
2.1162269 0.64174879 0.27152491 7
2.1409225 0.64923775 -0.27469349 7
2.10776 0.63918114 0.34884885 6
2.1316328 0.6464206 -0.19488025 7
2.1154916 0.6415258 0.42970186 6
2.1330202 0.64684129 -0.11681385 6
2.1185007 0.64243829 0.51108879 6
2.1337085 0.64705002 -0.038918868 6
2.1019897 0.63743132 0.5885545 7
1.5064384 0.45109352 -0.42135739 7
2.1206288 0.63500905 0.038639627 6
1.7118924 0.51261544 -0.41256022 6
2.141005 0.64111054 0.11712787 7
1.9578549 0.58626735 -0.39726433 1
2.1205156 0.63497514 0.19366007 7
2.1279626 0.63720506 0.27274358 6
2.1507826 0.64403838 -0.27566844 6
2.1213324 0.63521969 0.35072607 6
2.1472368 0.64297658 -0.19610041 6
2.1139567 0.6330111 0.42893863 6
2.1429183 0.64168346 -0.11723254 6
2.1263309 0.63671649 0.51243848 7
2.1397853 0.64074534 -0.038988676 6
2.120858 0.63507766 0.59321326 6
1.5080038 0.44583234 -0.42135739 7
2.1343384 0.63100439 0.038849056 6
1.7136713 0.50663668 -0.41256022 4
2.1240768 0.62797064 0.11608115 6
1.9523586 0.57720315 -0.39573786 1
2.1418254 0.63321793 0.19540317 6
2.1386914 0.63229138 -0.35322902 1
2.1206555 0.6269592 0.27152491 7
2.1415956 0.63314998 -0.27420601 6
2.1273255 0.62893111 0.3513518 6
2.1380043 0.63208824 -0.19505455 6
2.1236842 0.62785459 0.4304651 6
2.1374838 0.6319344 -0.11681385 6
2.1229341 0.6276328 0.51108879 7
2.1611853 0.63894159 -0.039337724 6
2.1286197 0.62931371 0.59476614 7
1.5188233 0.44327188 -0.42394561 7
2.1480455 0.62691182 0.039058484 6
1.7191707 0.50174373 -0.41346005 4
2.1300905 0.6216715 0.11629049 6
1.9807463 0.57808512 -0.40108052 1
2.1459355 0.62629592 0.19557749 7
2.1882923 0.63865781 -0.36105075 7
2.1247368 0.62010908 0.27176863 6
2.1361704 0.62344599 -0.27323106 6
2.1333003 0.62260836 0.35197756 6
2.1650615 0.6318779 -0.1973206 7
2.1371706 0.62373793 0.43275481 6
2.1473458 0.62670755 -0.11723254 6
2.1194999 0.6185807 0.5097391 7
2.1480455 0.62691182 -0.039058484 6
2.1345124 0.62296206 0.59580141 7
1.4999413 0.43208516 -0.41825157 7
2.1559856 0.6210705 0.039163198 7
1.7321472 0.49897626 -0.41615945 5
2.1399243 0.61644381 0.11670918 6
2.0110502 0.5793193 -0.40680477 2
2.1385357 0.61604381 0.19470593 7
2.1905081 0.63101536 -0.36105075 7
2.1421487 0.61708456 0.27371854 7
2.1535938 0.62038153 -0.27518097 6
2.1278679 0.61297077 0.35072607 6
2.1538522 0.62045598 -0.19610041 6
2.1412213 0.61681741 0.43313643 7
2.1648741 0.623631 -0.11806992 6
2.1291366 0.61333621 0.51153868 7
2.1540639 0.62051696 -0.039128296 6
2.1292484 0.61336839 0.59373087 7
1.5069404 0.42869461 -0.41980448 7
2.1484163 0.6111818 0.038988676 6
1.7487873 0.49749526 -0.41975868 4
2.1534829 0.61262316 0.11733721 6
2.0261786 0.57640755 -0.4094761 1
2.1386507 0.60840362 0.19453162 7
2.1925886 0.62374794 -0.36105075 7
2.1499112 0.61160702 0.27444977 7
2.1594579 0.6143229 -0.27566844 6
2.1336889 0.60699213 0.3513518 6
2.1539814 0.61276495 -0.19592611 7
2.1413667 0.60917634 0.43275481 6
2.1630881 0.61535561 -0.11786057 6
2.1274102 0.60520589 0.51063889 7
2.1522632 0.61227608 -0.039058484 6
2.1294127 0.60577559 0.59321326 7
1.5195873 0.42656446 -0.42291033 7
2.1505368 0.6036787 0.038988676 6
1.7279986 0.48506773 -0.41435984 4
2.1556084 0.60510236 0.11733721 6
2.0130568 0.5650866 -0.40642315 1
2.1541891 0.60470396 0.1957518 7
2.1909487 0.61502284 -0.360425 7
2.1482105 0.60302573 0.27396229 8
2.1673229 0.60839075 -0.27639967 6
2.1434021 0.60167599 0.35260329 6
2.1676168 0.60847324 -0.19697198 7
2.1340292 0.59904486 0.43084672 6
2.1613772 0.6067217 -0.11765123 6
2.1482718 0.60304296 0.51513791 7
2.1659389 0.60800225 -0.039267916 6
2.1408141 0.60094941 0.59580141 7
1.5266523 0.42280433 -0.42446324 7
2.1564851 0.59723568 0.039058484 6
1.7296813 0.47903293 -0.41435984 4
2.1500082 0.59544188 0.11691853 6
2.0074489 0.5559603 -0.40489668 1
2.1562867 0.59718072 0.1957518 6
2.2045047 0.61053461 -0.36230221 6
2.1464763 0.59446377 0.27347481 7
2.16752 0.60029185 -0.27615592 6
2.1492968 0.59524488 0.35322902 6
2.1678073 0.60037136 -0.19679767 7
2.1474595 0.59473604 0.43313643 6
2.1557825 0.59704113 -0.11723254 6
2.1315835 0.59033918 0.51063889 7
2.1757567 0.60257292 -0.039407533 6
2.1503458 0.5955354 0.59787202 7
1.5411638 0.42103654 -0.4280867 7
2.1662726 0.59181249 0.039198104 6
1.7351025 0.47401944 -0.41525966 5
2.1636333 0.59109145 0.11754656 6
1.9658186 0.53704965 -0.39611948 2
2.1660459 0.5917505 0.19644904 6
2.2104335 0.60387689 -0.36292797 7
2.1485384 0.58696753 0.27347481 7
2.1696024 0.59272212 -0.27615592 6
2.1551726 0.58877999 0.35385475 6
2.1622021 0.59070039 -0.19610041 6
2.1514163 0.58775377 0.43351805 7
2.1694133 0.5926705 -0.11786057 6
2.1373909 0.58392209 0.51153868 7
2.1662726 0.59181249 -0.039198104 6
2.171047 0.59311676 0.60304838 7
1.5239708 0.41062826 -0.42291033 7
2.1721871 0.58528769 0.039267916 6
1.7329834 0.46694589 -0.41435984 5
2.1656835 0.58353537 0.11754656 6
1.9563074 0.52711976 -0.39382976 4
2.1623271 0.58263093 0.19592611 7
2.2239721 0.59924096 -0.36480516 7
2.1735749 0.58566165 0.27639967 7
2.1639912 0.58307934 -0.27518097 6
2.1533999 0.58022559 0.35322902 6
2.1738696 0.58574104 -0.19697198 7
2.1553504 0.58075112 0.43389964 6
2.1830399 0.58821195 -0.1184886 6
2.1488242 0.57899266 0.51378822 6
2.1721871 0.58528769 -0.039267916 6
2.1544509 0.58050877 0.59787202 7
1.5104585 0.40133739 -0.41876921 7
2.1664863 0.57564771 0.039128296 6
1.7496699 0.46489725 -0.41795906 4
2.1831496 0.58007526 0.11838394 6
1.9998788 0.53137916 -0.40222538 2
2.1662731 0.57559109 0.19610041 6
2.2145953 0.58843058 -0.36292797 7
2.18328 0.58010989 0.27737463 7
2.1851985 0.58061969 -0.27761838 6
2.1554122 0.57270527 0.35322902 6
2.1662731 0.57559109 -0.19610041 7
2.1573644 0.57322401 0.43389964 6
2.1850798 0.5805881 -0.1184886 6
2.160249 0.57399046 0.5160377 7
2.1819475 0.57975578 -0.039407533 6
2.1657994 0.5754652 0.60046017 6
1.515449 0.39757061 -0.41980448 7
2.1721525 0.56985354 0.039198104 6
1.739812 0.45643115 -0.41525966 5
2.1772337 0.57118654 0.11796524 6
2.0471141 0.53705031 -0.4113842 3
2.1719251 0.56979388 0.19644904 7
2.216433 0.58147031 -0.36292797 8
2.1735711 0.57022572 0.2759122 7
2.1889319 0.57425553 -0.2778621 5
2.1724865 0.56994116 0.35573196 6
2.1834881 0.5728274 -0.19749491 6
2.1610537 0.5669418 0.43428126 7
2.1791654 0.57169336 -0.11806992 6
2.1639266 0.5676955 0.5164876 6
2.1798894 0.57188332 -0.039337724 6
2.1713338 0.56963879 0.60149544 6
1.5355308 0.39711526 -0.42498088 7
2.1780005 0.5632692 0.039267916 5
1.7338481 0.4484036 -0.41346005 5
2.1830814 0.56458324 0.11817459 6
2.0584798 0.53235906 -0.41329229 4
2.1854744 0.56520212 0.19749491 6
2.2146244 0.57274079 -0.36230221 6
2.1582515 0.5581618 0.27371854 6
2.1813138 0.56412613 -0.2766434 6
2.1782877 0.56334352 0.35635772 6
2.1970479 0.56819522 -0.19854078 6
2.1687217 0.56086957 0.43542612 6
2.1811478 0.56408316 -0.11806992 6
2.1640084 0.5596506 0.5160377 7
2.2051044 0.57027876 -0.039756581 6
2.1733091 0.56205595 0.60149544 6
1.5407201 0.39243826 -0.42601615 7
2.181988 0.55577624 0.039302818 6
1.7392567 0.44300774 -0.41435984 4
2.1735232 0.55362016 0.11754656 6
2.0585146 0.52432621 -0.41291067 5
2.1913927 0.55817169 0.19784354 7
2.2320228 0.56852061 -0.36480516 7
2.1814432 0.55563742 0.27639967 7
2.1795194 0.55514747 -0.27615592 6
2.1726809 0.55340558 0.35510623 6
2.2222846 0.56604022 -0.20063251 6
2.1707628 0.552917 0.43542612 6
2.189007 0.55756402 -0.11838394 6
2.1528261 0.54834831 0.51288843 7
2.2033041 0.56120569 -0.039686773 6
2.1903312 0.55790132 0.60563654 7
1.5195959 0.38141415 -0.41980448 7
2.191673 0.55010355 0.039442439 6
1.7559135 0.44072917 -0.41795906 4
2.1851285 0.5484609 0.11806992 5
2.066045 0.51857132 -0.41405553 4
2.1855979 0.54857874 0.1971463 6
2.2416575 0.56264955 -0.36605665 7
2.1910708 0.54995245 0.27737463 7
2.1852949 0.54850268 -0.2766434 6
2.1669354 0.54389453 0.35385475 6
2.2087874 0.55439925 -0.19923803 6
2.1764879 0.54629219 0.43618935 6
2.1967514 0.55137825 -0.11869795 6
2.1622875 0.54272789 0.51468801 6
2.1858544 0.54864311 -0.039337724 6
2.1828966 0.54790074 0.60304838 7
1.5209179 0.37610745 -0.41980448 7
2.1974623 0.54340994 0.039512247 6
1.7574412 0.43459722 -0.41795906 5
2.2044792 0.54514515 0.11901196 6
2.0583134 0.50899982 -0.41214743 5
2.1874995 0.54094625 0.1971463 6
2.2321022 0.55197603 -0.36417943 7
2.187196 0.5408712 0.2766434 6
2.1949043 0.54277736 -0.27761838 6
2.1841617 0.54012084 0.35635772 6
2.2010386 0.5442943 -0.19836646 7
2.1783817 0.53869146 0.43618935 6
2.2102959 0.54658353 -0.11932598 6
2.1793027 0.53891927 0.51828724 6
2.2149332 0.54773033 -0.039826393 6
2.1829205 0.53981388 0.60253072 6
1.5222216 0.37079614 -0.41980448 7
2.1954601 0.5347895 0.039442439 6
1.751374 0.42661512 -0.41615945 5
2.2044282 0.53697407 0.1189073 6
2.0543551 0.50041795 -0.41100258 4
2.185503 0.53236407 0.19679767 6
2.2532079 0.54885626 -0.36730811 6
2.1852133 0.53229356 0.27615592 6
2.2045004 0.53699166 -0.27859333 6
2.1898723 0.53342843 0.35698345 5
2.2087324 0.53802252 -0.1988894 6
2.1726189 0.52922565 0.43466288 6
2.188904 0.53319257 -0.11806992 6
2.1887441 0.53315359 0.52008682 6
2.2051744 0.53715587 -0.039616961 6
2.1847916 0.5321908 0.60253072 7
1.5459845 0.37115803 -0.42601615 7
2.1972213 0.52750617 0.039442439 6
1.752779 0.42080504 -0.41615945 4
2.1984284 0.52779597 0.1184886 5
2.0502763 0.49222776 -0.40985772 2
2.1911309 0.52604401 0.1971463 6
2.2434907 0.53861445 -0.36543092 7
2.1908269 0.52597106 0.2766434 7
2.2101295 0.53060514 -0.27908081 6
2.1954708 0.5270859 0.35760918 6
2.2221284 0.53348583 -0.19993527 6
2.1781797 0.52293473 0.43542612 6
2.2061968 0.529661 -0.1189073 6
2.1905 0.52589256 0.52008682 6
2.226388 0.53450847 -0.03996601 6
2.2034504 0.52900165 0.60718948 7
1.5509667 0.36691883 -0.42705142 7
2.2067425 0.52205849 0.039582059 6
1.7503721 0.41409302 -0.41525966 5
2.1982231 0.52004302 0.11838394 6
2.0347025 0.48135829 -0.40642315 1
2.214191 0.52382064 0.19906372 7
2.2567985 0.53390044 -0.36730811 7
2.2002861 0.52053112 0.27761838 7
2.2041497 0.52144516 -0.27810585 6
2.193362 0.518893 0.35698345 6
2.2277629 0.52703142 -0.2002839 6
2.1951861 0.51932454 0.43847907 7
2.1943357 0.51912344 -0.11817459 6
2.1846464 0.51683116 0.51828724 6
2.2281482 0.52712256 -0.03996601 6
2.2127125 0.52347088 0.60926002 7
1.540949 0.35887361 -0.42394561 7
2.2241318 0.51798093 0.039861295 6
1.7593987 0.40974861 -0.41705924 4
2.2116961 0.51508474 0.11901196 6
1.9828321 0.4617843 -0.39573786 1
2.2024226 0.51292503 0.19784354 6
2.2817349 0.53139621 -0.37106255 7
2.2098231 0.51464856 0.27859333 7
2.2175567 0.51644963 -0.27956828 6
2.1990077 0.51212972 0.35760918 6
2.216006 0.51608849 -0.19906372 7
2.204634 0.51344001 0.44000554 6
2.2214222 0.51734984 -0.11953533 6
2.190233 0.51008618 0.51918703 6
2.2221844 0.51752734 -0.039826393 6
2.2032373 0.51311475 0.6061542 7
1.5383648 0.35289776 -0.42291033 7
2.2063468 0.50613147 0.039512247 6
1.7683454 0.40565485 -0.41885886 5
2.213392 0.50774765 0.11901196 6
1.9843525 0.45520645 -0.39573786 1
2.2079954 0.50650966 0.19819216 6
2.2565296 0.51764333 -0.36668238 7
2.2037783 0.50554228 0.27761838 6
2.230866 0.51175618 -0.28103071 6
2.2083952 0.50660145 0.35886067 5
2.223531 0.51007354 -0.19958664 7
2.1986701 0.50437051 0.43847907 6
2.2386992 0.51355302 -0.1203727 6
2.1995101 0.50456321 0.52098662 6
2.2316847 0.51194394 -0.03996601 6
2.2105756 0.50710154 0.60770714 7
1.5322303 0.34502202 -0.42083976 7
2.2083607 0.49727058 0.039512247 6
1.7585527 0.39598447 -0.41615945 5
2.2232063 0.50061345 0.11943065 6
1.9861637 0.4472371 -0.39573786 1
2.2138984 0.49851754 0.19854078 6
2.2585893 0.50858086 -0.36668238 7
2.2193463 0.49974427 0.27932453 7
2.2290292 0.50192463 -0.28054324 6
2.2142653 0.49860018 0.3594864 6
2.2488854 0.50639576 -0.2016784 6
2.1891854 0.49295273 0.43618935 6
2.2193093 0.49973598 -0.11922131 6
2.203419 0.49615782 0.52143657 7
2.2493284 0.50649554 -0.04024525 6
2.2125933 0.49822366 0.60770714 6
1.5484545 0.3432841 -0.42498088 7
2.2178066 0.49167591 0.039651867 6
1.7560511 0.38930714 -0.41525966 5
2.2131548 0.4906446 0.11880262 6
2.0719714 0.45934501 -0.41252905 1
2.2213748 0.49246693 0.19906372 7
2.2679775 0.5027985 -0.36793387 7
2.2035489 0.48851502 0.27713087 6
2.2268052 0.49367085 -0.28005576 6
2.2197638 0.49210978 0.36011213 6
2.2427716 0.49721047 -0.20098114 6
2.1984749 0.48739013 0.43771583 6
2.2307041 0.49453518 -0.11974467 6
2.21837 0.49180079 0.52458584 7
2.2588048 0.50076497 -0.04038487 6
2.233094 0.495065 0.61288351 7
1.5572526 0.33925128 -0.42705142 7
2.231317 0.48609787 0.039861295 6
1.776507 0.38701639 -0.41975868 4
2.2149382 0.48252967 0.11880262 6
2.058295 0.44840461 -0.4094761 1
2.2251115 0.48474598 0.19923803 6
2.2775257 0.4961645 -0.36918533 6
2.2092037 0.48128042 0.27761838 7
2.2402372 0.48804116 -0.28151819 6
2.2176924 0.48312968 0.3594864 6
2.2640462 0.49322799 -0.20272426 6
2.2136743 0.48225433 0.44038716 6
2.2285986 0.48550564 -0.11953533 6
2.2087333 0.48117793 0.52188647 6
2.2606251 0.49248269 -0.04038487 6
2.2386687 0.48769942 0.61391878 6
1.5470355 0.33165565 -0.42394561 7
2.2407379 0.48037258 0.040000916 6
1.7663479 0.37867218 -0.41705924 4
2.2262905 0.47727534 0.11932598 5
2.0597708 0.44157657 -0.4094761 2
2.2228105 0.4765293 0.1988894 6
2.2907474 0.4910937 -0.37106255 7
2.2340794 0.47894514 0.28054324 6
2.2418435 0.4806096 -0.28151819 6
2.2154193 0.47494474 0.35886067 6
2.2461882 0.48154101 -0.20098114 6
2.2191007 0.47573394 0.4411504 5
2.234102 0.47894999 -0.11974467 6
2.216033 0.47507632 0.52323616 7
2.2505143 0.48246843 -0.040175438 6
2.2327178 0.47865322 0.61184824 6
1.5386754 0.32453024 -0.42135739 7
2.2344918 0.47128862 0.039861295 6
1.767594 0.37281269 -0.41705924 5
2.2337239 0.47112662 0.11963999 6
2.0765917 0.43798503 -0.41252905 4
2.2165806 0.46751085 0.19819216 6
2.2884977 0.48267925 -0.37043682 7
2.2356553 0.47153404 0.28054324 6
2.255079 0.47563076 -0.28298062 6
2.2285793 0.47004154 0.36073789 6
2.2672675 0.47820151 -0.20272426 6
2.226429 0.46958804 0.44229525 6
2.2513123 0.47483629 -0.12058204 6
2.2309437 0.47054029 0.52638549 7
2.2579718 0.47624087 -0.040280156 6
2.2380733 0.47204399 0.61288351 6
1.5510926 0.32178053 -0.42446324 7
2.2360425 0.46387619 0.039861295 6
1.761188 0.36536568 -0.41525966 5
2.2450519 0.46574524 0.12016336 6
2.0876443 0.43309039 -0.41443714 6
2.2376273 0.46420497 0.19993527 6
2.2900856 0.47508767 -0.37043682 7
2.2313757 0.46290806 0.27981201 7
2.2644186 0.46976295 -0.28395557 6
2.2301257 0.46264872 0.36073789 5
2.2571359 0.46825209 -0.2016784 6
2.2202847 0.46060717 0.44076878 6
2.2528744 0.46736804 -0.12058204 6
2.2344 0.46353546 0.52683538 7
2.2673705 0.47037533 -0.040419772 6
2.2358432 0.46383485 0.61184824 6
1.5579406 0.31724977 -0.42601615 7
2.2494845 0.45807168 0.040070724 6
1.7701535 0.36046356 -0.41705924 4
2.2389154 0.45591947 0.11974467 6
2.0892177 0.42543587 -0.41443714 6
2.2451706 0.4571932 0.20045821 7
2.3072968 0.46984422 -0.37293977 7
2.2350025 0.45512265 0.28005576 6
2.2583447 0.45987588 -0.28298062 6
2.2356777 0.45526013 0.36136362 6
2.2666461 0.46156636 -0.20237564 6
2.2354243 0.45520854 0.44344011 6
2.2467439 0.4575136 -0.12016336 6
2.2303553 0.45417631 0.52548563 6
2.2729983 0.46285987 -0.040489584 6
2.2469933 0.45756438 0.61443639 7
1.5627726 0.3128401 -0.42705142 7
2.2529521 0.45100212 0.04010563 6
1.7789825 0.3561216 -0.41885886 4
2.2482488 0.45006061 0.12016336 6
2.0829167 0.41696396 -0.41291067 6
2.2447207 0.44935435 0.2002839 6
2.312716 0.46296585 -0.3735655 6
2.2462318 0.44965684 0.28127444 7
2.2403924 0.44848791 -0.28054324 6
2.237175 0.44784385 0.36136362 6
2.2779324 0.45600277 -0.20324719 7
2.2426968 0.44894919 0.44458497 6
2.2560823 0.45162874 -0.12058204 6
2.2242057 0.44524762 0.52368605 6
2.2705991 0.45453477 -0.040419772 6
2.2579696 0.45200655 0.6170246 6
1.5563262 0.30562115 -0.42498088 7
2.2624388 0.44428292 0.04024525 6
1.7841002 0.35034993 -0.41975868 5
2.2459636 0.44104761 0.11995401 6
2.0844309 0.40932691 -0.41291067 6
2.2463527 0.44112402 0.2002839 6
2.3376577 0.4590539 -0.37731993 7
2.2459168 0.44103846 0.28103071 6
2.2576044 0.44333357 -0.28249314 6
2.2388015 0.43964118 0.36136362 6
2.2737234 0.4464989 -0.20272426 6
2.2443273 0.44072628 0.44458497 6
2.2655618 0.44489619 -0.12100073 6
2.2372961 0.43934557 0.52638549 6
2.2761743 0.44698021 -0.040489584 6
2.2558198 0.44298315 0.61598933 6
1.5535372 0.29972658 -0.42394561 7
2.2580092 0.4356415 0.040140536 6
1.7890791 0.34517005 -0.42065847 4
2.2591803 0.43586746 0.12058204 5
2.0857768 0.40241244 -0.41291067 6
2.2634535 0.43669191 0.2016784 6
2.3158917 0.4468089 -0.3735655 6
2.2551637 0.43509254 0.28200567 6
2.2746551 0.43885306 -0.28444305 6
2.2480054 0.43371147 0.36261508 5
2.2751915 0.4389565 -0.20272426 6
2.2534871 0.43476906 0.44611144 6
2.2670248 0.43738088 -0.12100073 6
2.2502215 0.43413901 0.52908486 6
2.2815709 0.44018734 -0.040559392 6
2.2534826 0.4347682 0.61495405 6
1.5564722 0.29466122 -0.42446324 7
2.2555864 0.42701301 0.040070724 6
1.7787848 0.33674797 -0.41795906 4
2.2744248 0.43057936 0.12131475 6
2.0833108 0.3943989 -0.41214743 6
2.2649641 0.4287883 0.2016784 6
2.3135555 0.43798733 -0.37293977 7
2.2566688 0.42721787 0.28200567 6
2.2800741 0.43164885 -0.28493053 6
2.2572694 0.4273316 0.36386657 6
2.2962861 0.43471798 -0.20446737 6
2.2472751 0.42543954 0.44458497 6
2.2724624 0.43020785 -0.12121008 6
2.2555525 0.4270066 0.52998471 6
2.2948823 0.43445224 -0.040768821 6
2.2625792 0.4283368 0.6170246 7
1.5669373 0.2912634 -0.42705142 7
2.2687862 0.42172351 0.040280156 6
1.7760597 0.3301352 -0.41705924 5
2.266022 0.42120972 0.12079139 5
2.0961883 0.38964093 -0.41443714 6
2.2663736 0.42127508 0.2016784 6
2.3247058 0.43211788 -0.37450412 6
2.2580731 0.41973215 0.28200567 6
2.2775896 0.4233599 -0.28444305 6
2.2470214 0.41767785 0.36198935 6
2.3055503 0.42855725 -0.20516461 6
2.2544641 0.41906133 0.44572982 5
2.2895856 0.42558971 -0.12204745 6
2.2646198 0.4209491 0.5317843 6
2.3002424 0.42757064 -0.040838633 5
2.275383 0.42294973 0.62013042 6
1.5604911 0.2835893 -0.42498088 7
2.2802982 0.4144004 0.040454678 5
1.7773707 0.32300299 -0.41705924 4
2.2598343 0.41068149 0.1203727 6
2.1015987 0.38192526 -0.41520038 6
2.279808 0.41431135 0.20272426 6
2.3361394 0.42454848 -0.37606844 6
2.265599 0.41172913 0.28273687 7
2.2753646 0.41350383 -0.28395557 6
2.2603412 0.41077361 0.36386657 5
2.3033314 0.41858628 -0.204816 6
2.2657862 0.41176316 0.44763792 6
2.2755549 0.41353843 -0.12121008 6
2.2509527 0.40906745 0.52818507 6
2.3019404 0.41833347 -0.040838633 6
2.2770624 0.4138124 0.62013042 6
1.5481099 0.27603915 -0.42135739 7
2.2796912 0.40648538 0.040419772 6
1.782269 0.3177914 -0.41795906 4
2.2670825 0.40423715 0.12068672 6
2.0951228 0.37357548 -0.41367391 6
2.2733238 0.40535 0.20202701 6
2.3453131 0.41818625 -0.37731993 7
2.2825861 0.40700155 0.28468677 7
2.2962658 0.40944076 -0.28639296 6
2.2578015 0.40258229 0.36324084 5
2.3125527 0.41234481 -0.20551324 6
2.2787359 0.40631503 0.4499276 6
2.3005087 0.41019729 -0.12246614 6
2.2676446 0.40433741 0.5317843 6
2.2954404 0.40929356 -0.040699013 5
2.2784221 0.40625909 0.62013042 6
1.5586267 0.27202392 -0.42394561 7
2.2811656 0.39812714 0.040419772 6
1.7872612 0.31192702 -0.41885886 4
2.2823215 0.39832887 0.12141941 4
2.1003458 0.36656904 -0.41443714 6
2.2747941 0.39701512 0.20202701 6
2.3312624 0.40687042 -0.37481698 6
2.3055732 0.40238696 0.28736791 6
2.3055732 0.40238696 -0.28736791 6
2.2631538 0.39498356 0.36386657 6
2.3061976 0.40249592 -0.204816 6
2.2802098 0.39796031 0.4499276 7
2.3098667 0.40313628 -0.12288482 6
2.2825496 0.39836866 0.53493363 7
2.2969251 0.40087759 -0.040699013 6
2.2722836 0.39657697 0.61805987 6
1.5671369 0.26815712 -0.42601615 7
2.2864156 0.39123487 0.040489584 6
1.7959691 0.30731323 -0.42065847 4
2.3013477 0.39378998 0.12236147 6
2.1131608 0.36158878 -0.41672686 5
2.2839534 0.39081362 0.20272426 7
2.3384402 0.40013695 -0.37575558 6
2.2892852 0.39172593 0.28517425 7
2.3088517 0.39507401 -0.28761166 6
2.287816 0.39147455 0.367621 5
2.3134112 0.3958542 -0.20533893 7
2.2737765 0.38907218 0.44840115 6
2.2915044 0.39210567 -0.12183811 6
2.3011456 0.39375538 0.53898275 6
2.3179522 0.39663124 -0.041048061 6
2.2850113 0.39099461 0.62116569 7
1.5681092 0.26241148 -0.42601615 9
2.2819173 0.38186198 0.04038487 5
1.7893953 0.29944208 -0.41885886 4
2.2889864 0.38304496 0.12162876 5
2.1009176 0.35157302 -0.41405553 4
2.3069863 0.38605711 0.20464168 7
2.3457358 0.39254156 -0.3766942 6
2.2926633 0.38366026 0.285418 6
2.3141999 0.38726425 -0.28809914 5
2.2892356 0.38308665 0.367621 5
2.3286021 0.38967434 -0.20655911 6
2.2829325 0.38203189 0.4499276 6
2.2929263 0.38370425 -0.12183811 6
2.285275 0.38242388 0.53493363 5
2.3272796 0.38945302 -0.041187678 6
2.2940505 0.38389239 0.62323624 6
1.584222 0.25971022 -0.43015724 9
2.2989578 0.37688079 0.040664107 5
1.7711477 0.29035398 -0.41435984 5
2.2843313 0.37448299 0.12131475 6
2.098197 0.34396899 -0.41329229 4
2.3062878 0.37808242 0.20446737 5
2.3626194 0.38731721 -0.37919715 6
2.2860873 0.37477085 0.28444305 6
2.3135126 0.37926683 -0.28785539 6
2.2865946 0.37485403 0.36699525 6
2.3416784 0.38388419 -0.20760497 6
2.2958112 0.37636495 0.45221731 6
2.3158665 0.37965271 -0.1229895 6
2.2846076 0.37452829 0.53448373 7
2.3246114 0.38108635 -0.041117869 6
2.2991235 0.37690797 0.62427151 6
1.5622292 0.25050822 -0.42394561 9
2.3002594 0.36885366 0.040664107 5
1.802937 0.28910649 -0.42155829 4
2.3014011 0.3690367 0.12215212 6
2.0916309 0.33539945 -0.41176581 4
2.2957897 0.36813694 0.2034215 6
2.3795607 0.38156986 -0.3817001 7
2.305022 0.36961734 0.28663671 7
2.3265827 0.37307465 -0.28931782 6
2.2839882 0.36624452 0.36636952 6
2.3292332 0.37349969 -0.20638479 7
2.3029263 0.36928132 0.45336217 5
2.3270378 0.37314767 -0.12351286 6
2.297446 0.36840251 0.53718311 6
2.3180296 0.37170315 -0.040978249 6
2.2870729 0.36673915 0.62064809 5
1.5668682 0.2459254 -0.42498088 7
2.3034453 0.36153376 0.040699013 6
1.7846341 0.28010452 -0.41705924 4
2.3085315 0.36233202 0.12246614 5
2.1198847 0.33272326 -0.41710848 4
2.2930615 0.35990393 0.20307288 6
2.3749585 0.37275797 -0.38076147 5
2.3238847 0.36474177 0.28883034 6
2.3317292 0.36597297 -0.28980529 6
2.2968991 0.36050627 0.36824673 6
2.324554 0.36484683 -0.20586187 6
2.3021989 0.36133808 0.45298055 6
2.3282626 0.36542886 -0.12351286 6
2.3102059 0.36259484 0.53988254 7
2.3350537 0.36649475 -0.041257489 5
2.2882764 0.35915291 0.62064809 7
1.560079 0.23928298 -0.42291033 7
2.2987638 0.35258153 0.040594298 5
1.7817485 0.27328238 -0.41615945 4
2.319653 0.35578552 0.1229895 6
2.1016278 0.32234505 -0.41329229 3
2.3061199 0.35370982 0.20411874 6
