# .PCD v0.7 - Point Cloud Data file format
VERSION 0.7
FIELDS x y z intensity
SIZE 4 4 4 4
TYPE F F F F
COUNT 1 1 1 1
WIDTH 1318
HEIGHT 1
VIEWPOINT 0 0 0 1 0 0 0
POINTS 1318
DATA ascii
-13.813586 -27.489161 8.2433863 16
-0.82277608 -1.6231842 -0.48761508 5
-0.96301061 -1.899841 -0.491743 3
-1.1450468 -2.2589645 -0.49228722 11
-1.4227306 -2.806783 -0.49840021 1
-1.2771519 -2.5195835 0.34684014 36
-4.9719658 -9.8087645 1.7417413 1
-14.059222 -27.736233 6.0444474 19
-14.016958 -27.652853 7.1574926 29
-13.897229 -27.416651 8.2361393 11
-0.83135903 -1.6253175 -0.48916799 5
-0.96819252 -1.8928286 -0.49084321 3
-1.1560009 -2.2599962 -0.49343207 14
-1.4348075 -2.8050668 -0.49902594 1
-5.0627565 -9.8977537 1.7608263 1
-14.005222 -27.380388 5.9780459 9
-14.000188 -27.370544 7.0976558 7
-5.0453377 -9.863699 2.9686544 3
-0.84234184 -1.6327065 -0.49227384 5
-0.97747427 -1.8946329 -0.49219289 2
-1.1665831 -2.2611816 -0.4945769 10
-1.3264012 -2.5709562 0.25310028 1
-1.2787662 -2.4786253 0.34245285 10
-14.047605 -27.228394 5.9555302 9
-14.050969 -27.234917 7.0751605 14
-1.3083439 -2.5359557 -0.049809169 1
-5.1762838 -10.033162 3.0250771 3
-0.84357727 -1.6211877 -0.48968562 5
-1.2959579 -2.4905734 0.049006358 19
-0.98228276 -1.8877521 -0.4912931 2
-1.2989887 -2.4963977 0.14748272 11
-1.1844374 -2.276253 -0.49877471 7
-1.2967411 -2.4920785 0.2457792 49
-1.3011694 -2.5005887 -0.44646397 2
-1.289243 -2.4776683 -0.34294033 4
-5.2730646 -10.13378 1.809321 4
-1.2921427 -2.4832413 -0.24490763 7
-5.2760482 -10.139514 2.2217798 1
-1.3035983 -2.5052564 -0.14800608 39
-5.2982101 -10.182106 2.6499233 3
-14.160684 -27.214016 8.2200928 10
-0.84025407 -1.601127 -0.48450926 5
-0.99429959 -1.894665 -0.49399251 2
-1.2525876 -2.3868399 -0.52396148 8
-1.3034184 -2.4836996 0.34440276 25
-5.4525213 -10.389928 1.8584415 1
-5.4509912 -10.387012 2.2801676 1
-14.355766 -27.355305 7.132298 21
-1.3046438 -2.4860344 -0.049006358 116
-14.240332 -27.13534 8.2112932 10
-0.86001295 -1.6256537 -0.49279147 5
-0.99784327 -1.8861898 -0.49264282 2
-1.2751848 -2.410439 -0.53006738 7
-5.6633778 -10.705294 1.9181994 1
-5.6267872 -10.636127 2.3389366 1
-13.557911 -25.628065 6.6936436 13
-5.6126685 -10.60944 3.2160854 3
-0.8656823 -1.6226419 -0.49279147 5
-1.0025866 -1.8792565 -0.491743 2
-1.2207514 -2.2881861 -0.50411737 1
-1.3436539 -2.5185556 0.35049623 1
-5.8048511 -10.880659 1.9532408 1
-4.3355675 -8.1266222 -0.80584198 2
-14.508552 -27.194944 5.9914026 19
-4.3170204 -8.0918579 -0.48065343 11
-14.516868 -27.210533 7.1201506 14
-4.3420529 -8.1387787 -0.1610159 42
-14.422886 -27.034372 8.2102575 10
-0.86584949 -1.6094025 -0.48968562 5
-5.2856412 -9.8247156 0.19473395 2
-1.0063705 -1.8705969 -0.49039331 2
-11.718522 -21.781868 1.296257 31
-1.22129 -2.2700796 -0.50106442 1
-14.444413 -26.848635 2.6673143 20
-1.5301893 -2.8442481 -0.51154071 1
-1.3373891 -2.4858797 0.34659642 1
-4.3808427 -8.1429167 -1.1353348 14
-13.575166 -25.232916 4.5381637 4
-4.4639673 -8.2974243 -0.82431901 60
-14.602461 -27.142406 5.9910207 9
-4.4909644 -8.3476057 -0.49677289 83
-14.601605 -27.140816 7.115202 29
-4.4064379 -8.1904917 -0.16234228 62
-14.525403 -26.999174 8.2149162 10
-0.87698931 -1.6165588 -0.49279147 4
-5.3113217 -9.7903862 0.1944198 53
-1.0212574 -1.8824888 -0.4944424 2
-11.789721 -21.732052 1.2957336 41
-1.2198448 -2.2485459 -0.49724823 1
-14.541845 -26.805056 2.6680117 20
-1.5363405 -2.831944 -0.51028925 1
-14.669385 -27.040152 3.7772183 33
-4.4404778 -8.1851549 -1.1433781 2
-13.655627 -25.171486 4.5356607 4
-4.5033545 -8.3010559 -0.82623643 67
-14.689627 -27.077463 5.987968 29
-4.5267425 -8.3441668 -0.49750561 100
-14.694397 -27.086256 7.1143022 21
-4.480772 -8.2594299 -0.16401772 4
-14.622323 -26.953402 8.2164698 10
-0.87085187 -1.5913028 -0.48606217 6
-5.3366098 -9.7515574 0.19403586 78
-1.0216014 -1.8667666 -0.4912931 2
-11.863542 -21.678183 1.2951056 41
-1.2431579 -2.2716155 -0.50335413 1
-14.634254 -26.741091 2.6669657 20
-1.5277433 -2.7916369 -0.50403184 1
-14.758864 -26.96879 3.774781 33
-13.727879 -25.084875 4.5290904 4
-4.5500093 -8.3142071 -0.82919973 27
-14.77275 -26.994164 5.9814806 19
-4.5601716 -8.3327761 -0.4978196 100
-14.782349 -27.011703 7.1089034 29
-5.1350107 -9.3831768 -0.18670584 4
-14.732142 -26.919962 8.222681 10
-0.87173456 -1.5797961 -0.48347399 4
-5.3561249 -9.7066069 0.19351228 57
-1.0243455 -1.8563644 -0.48949349 2
-11.933351 -21.626146 1.2944776 41
-1.2396977 -2.2466352 -0.49877471 1
-14.721733 -26.679379 2.6659198 20
-1.5642008 -2.8347142 -0.51279217 1
-14.839486 -26.892775 3.7713687 33
-5.3812675 -9.7521725 -1.3676177 2
-13.810586 -25.028156 4.5275264 8
-3.154382 -5.7165112 -0.57121873 2
-14.853608 -26.918367 5.9761376 19
-4.5708966 -8.2835817 -0.49583086 92
-14.867132 -26.942875 7.104404 29
-5.1967163 -9.4177198 -0.18775299 4
-14.831621 -26.878523 8.2257872 10
-0.88917476 -1.5988449 -0.49020326 6
-5.394115 -9.6992779 0.19372171 31
-1.0304958 -1.8529572 -0.48949349 2
-11.996263 -21.570745 1.2935355 41
-1.2490494 -2.2459433 -0.49953794 1
-14.78882 -26.592104 2.6620851 20
-1.5716723 -2.8260586 -0.51216644 1
-14.92183 -26.831274 3.7696626 19
-13.888705 -24.973589 4.5259619 4
-14.939928 -26.863815 5.9749928 9
-4.5915461 -8.2561607 -0.49509814 26
-14.941241 -26.866177 7.0972056 21
-5.471868 -9.8390875 -0.1965141 90
-14.92255 -26.832567 8.2268219 10
-0.89475036 -1.5957314 -0.49020326 5
-5.804472 -10.351912 0.20716007 25
-1.0360044 -1.8476491 -0.48904359 3
-12.05488 -21.499125 1.291756 10
-1.2741649 -2.2723935 -0.50640708 3
-14.879605 -26.536844 2.6617365 20
-1.5467474 -2.7585273 -0.50090313 1
-14.991126 -26.735737 3.7635691 13
-13.947778 -24.874989 4.5168886 8
-5.500679 -9.8101168 -0.98398834 12
-15.026888 -26.799515 5.9723215 19
-3.1893027 -5.6879215 -0.34175378 4
-15.031118 -26.80706 7.0954061 14
-5.5012898 -9.8112059 -0.19633958 99
-15.008564 -26.766834 8.222681 10
-0.89556158 -1.5841897 -0.48761508 5
-5.8405714 -10.331588 0.20716007 25
-1.0472426 -1.8525037 -0.4912931 2
-3.1835825 -5.6315489 0.33903232 12
-1.268563 -2.244005 -0.50106442 1
-14.954496 -26.453524 2.6585987 19
-1.5913634 -2.8150177 -0.51216644 1
-15.09706 -26.705709 3.7667377 6
-14.029662 -24.817553 4.5153246 4
-3.1444447 -5.5623164 -0.55901694 2
-6.6452222 -11.754963 2.6247685 2
-4.6480894 -8.2221661 -0.49499348 30
-15.111175 -26.730679 7.0891075 14
-6.7594934 -11.957101 3.6804068 3
-0.89725971 -1.5743403 -0.48554453 5
-5.8756094 -10.309401 0.20712516 27
-1.0546677 -1.8505299 -0.491743 2
-3.2091546 -5.6308131 0.33966035 68
-1.2744441 -2.2361517 -0.50030118 1
-6.7104616 -11.77424 1.1856667 2
-1.5953113 -2.7991483 -0.51028925 1
-6.7527237 -11.848393 1.6744847 2
-6.9133415 -12.130215 2.2113576 1
-3.1460838 -5.5201483 -0.55587935 2
-15.169871 -26.617199 5.9551487 9
-4.6777511 -8.2076263 -0.49509814 28
-15.186056 -26.645599 7.0805593 7
-3.2823806 -5.7592959 -0.11570945 3
-15.175933 -26.627836 8.212328 10
-0.90467453 -1.5745488 -0.48657981 5
-5.9025946 -10.273223 0.20681101 46
-1.0582083 -1.841768 -0.49039331 2
-3.2327704 -5.6265039 0.34007904 46
-1.266593 -2.204453 -0.49419531 1
-15.136826 -26.345022 2.6582501 19
-1.5460262 -2.6907949 -0.4915171 1
-15.249508 -26.541142 3.7584505 6
-15.175856 -26.412954 4.8247519 4
-3.1951108 -5.5609593 -0.56110865 2
-15.265624 -26.569191 5.9562936 19
-4.6934371 -8.1687346 -0.4937374 19
-15.267324 -26.572151 7.0751605 14
-3.2825398 -5.7131257 -0.11501136 3
-15.264939 -26.567999 8.2102575 10
-0.91763473 -1.584915 -0.4907209 5
-5.9316192 -10.24494 0.20663649 42
-1.06431 -1.8382488 -0.49039331 2
-3.2394018 -5.5950112 0.33882299 16
-1.2975051 -2.2410173 -0.50335413 1
-15.214123 -26.277439 2.656507 19
-15.343405 -26.500734 3.759913 6
-7.263978 -12.546156 2.296145 1
-3.34531 -5.7779331 -0.58411777 2
-8.0732565 -13.943919 3.1319389 3
-8.080945 -13.957199 3.7233899 2
-8.0864134 -13.966645 4.3243484 11
-0.92510909 -1.5850391 -0.49175617 4
-1.0707202 -1.8345225 -0.49039331 2
-3.255892 -5.5784945 0.33850896 16
-1.3072991 -2.2398658 -0.50411737 1
-8.1249056 -13.920837 1.41018 3
-8.1922102 -14.036153 1.9954886 20
-3.1560071 -5.4073563 -0.7687518 34
-8.2178335 -14.080056 2.5821073 16
-3.4769373 -5.9572234 -0.60346639 17
-8.2218323 -14.086907 3.1704822 6
-3.1572287 -5.4094496 -0.32825112 21
-8.1875715 -14.028206 3.749934 5
-3.4120712 -5.8460851 -0.11815279 3
-7.4359298 -12.740377 3.9526844 2
-0.91664964 -1.5586495 -0.48450926 4
-3.3858213 -5.7571712 0.11658207 9
-1.0738342 -1.8259224 -0.48904359 2
-3.2814605 -5.5797181 0.33924165 66
-1.2968051 -2.2050571 -0.49724823 1
-3.159328 -5.3720469 0.5452463 1
-15.497269 -26.351192 3.7535758 6
-3.4486456 -5.863996 -0.83529246 12
-7.5274558 -12.799509 2.3518357 1
-15.520857 -26.3913 5.9513326 9
-3.5123067 -5.9722438 -0.36310688 2
-15.4071 -26.19787 7.0166731 7
-3.4375212 -5.8450804 -0.11836222 13
-15.527222 -26.402124 8.2071524 10
-0.92038536 -1.5519561 -0.48347399 5
-3.3966994 -5.7275233 0.11623303 81
-1.0874776 -1.8337073 -0.49219289 2
-3.312077 -5.5848327 0.3402884 70
-3.3898797 -5.7160239 -1.2917769 4
-3.1566377 -5.3227301 0.54141146 1
-15.588684 -26.285677 3.752357 19
-2.9172456 -4.9190669 -0.70221114 2
-15.502312 -26.140038 4.8134885 9
-7.7181101 -13.014297 2.9411299 2
-3.5851119 -6.0452247 -0.36834046 2
-15.50401 -26.1429 7.0171232 14
-3.1977937 -5.3921275 -0.10942659 3
-15.62093 -26.340052 8.2055988 10
-0.93147236 -1.5588455 -0.48657981 5
-1.0875548 -1.8200541 -0.48949349 2
-3.3213584 -5.5583882 0.33934635 64
-1.3161957 -2.2026911 -0.49877471 1
-3.1916447 -5.3413086 0.54437476 22
-15.656418 -26.201462 3.747726 19
-2.9315054 -4.9059582 -0.70172369 2
-15.583844 -26.080008 4.811924 18
-6.0777173 -10.171233 -1.0366304 2
-7.9565897 -13.31558 3.0151637 2
-2.9382036 -4.9171677 -0.30019903 24
-15.571626 -26.059561 7.008575 14
-3.1951425 -5.3471622 -0.10872849 3
-15.705218 -26.283131 8.2040462 10
-0.9354564 -1.5519484 -0.48554453 4
-3.4159188 -5.6671052 0.11550003 4
-1.0895052 -1.8075198 -0.48724398 2
-3.3406146 -5.5421729 0.33913699 64
-1.3266708 -2.200984 -0.49953794 1
-3.8076549 -6.3170061 0.6453011 4
-8.2842646 -13.743827 1.9703835 100
-8.274312 -13.727315 2.5386186 14
-6.094099 -10.110281 -1.0327955 2
-8.3917751 -13.922191 3.159797 31
-6.1028075 -10.124729 -0.61955303 54
-8.2744055 -13.727469 3.7004449 7
-8.3871946 -13.914591 4.3533363 15
-0.94861984 -1.5620475 -0.48968562 5
-3.2042603 -5.2763038 0.10775116 1
-1.1005509 -1.8122251 -0.48949349 2
-3.3527544 -5.520822 0.33850896 56
-1.3400767 -2.2066407 -0.50182766 1
-1.6621119 -2.7369211 -0.50716054 1
-3.8083773 -6.2710748 0.90085816 43
-8.4592371 -13.929425 2.5811687 20
-8.4460497 -13.90771 3.1628499 12
-5.8979034 -9.7117987 -0.59547853 99
-8.4554272 -13.923152 3.7607317 5
-8.4493351 -13.91312 4.3616185 9
-0.9510411 -1.5537835 -0.48813272 6
-3.0900774 -5.0484796 0.10331824 2
-1.1068701 -1.8083724 -0.48949349 2
-3.3699198 -5.5056782 0.33829963 34
-1.3293225 -2.171809 -0.49495852 1
-3.8401635 -6.2739487 0.64355803 17
-1.6407179 -2.6805577 -0.49777448 1
-3.8530433 -6.2949915 0.90622044 15
-15.833804 -25.868814 4.8037896 9
-15.933421 -26.031565 5.9326334 19
-5.9338531 -9.6945581 -0.59568787 95
-15.804436 -25.820833 6.9892292 28
-5.5757108 -9.109436 -0.18642661 12
-15.951874 -26.061712 8.1874819 32
-0.9460485 -1.5341778 -0.48295635 5
-3.1099505 -5.0433111 0.10342296 1
-1.1200206 -1.816303 -0.49264282 2
-3.3965452 -5.5080729 0.33913699 30
-1.3591875 -2.2041523 -0.50335413 1
-3.8107512 -6.1797776 0.63519102 34
-1.6381928 -2.6566067 -0.49433291 2
-3.8457651 -6.2365589 0.89963949 18
-15.908096 -25.797668 4.8003478 4
-16.00317 -25.951849 5.9265275 19
-15.893043 -25.773256 6.9905791 7
-3.4678626 -5.6237259 -0.1153255 26
-8.7030382 -14.113449 4.4428878 4
-0.96492529 -1.5520281 -0.48968562 5
-3.1959872 -5.1405659 0.10565687 1
-1.1235834 -1.8072208 -0.4912931 2
-1.354818 -2.1791484 -0.49877471 1
-1.6573056 -2.6656828 -0.49714872 2
-3.8518274 -6.1954479 0.89573967 40
-2.2670755 -3.6464636 -0.52720678 1
-15.426814 -24.813164 4.6276445 4
-16.053608 -25.821325 5.9101176 19
-4.8403401 -7.7854147 -0.48044407 14
-15.978139 -25.699938 6.9865298 14
-7.1394997 -11.483484 -0.23602635 9
-8.9699287 -14.427627 4.5521092 2
-0.96391404 -1.5389963 -0.48657981 5
-1.1171573 -1.7836665 -0.48589426 2
-3.1889589 -5.0915289 0.3148531 2
-3.2013595 -5.1113281 -1.1723305 12
-3.1981049 -5.1061311 0.52711791 1
-1.6996896 -2.7137442 -0.50716054 1
-16.127684 -25.749645 5.90592 19
-4.9095974 -7.8387198 -0.48473564 19
-16.050861 -25.626993 6.9811311 14
-7.7815075 -12.424046 -0.25588718 9
-16.200933 -25.8666 8.1781645 10
-0.97161114 -1.53872 -0.48761508 5
-3.8969471 -6.1715131 0.12740257 63
-1.1403346 -1.8059238 -0.49309272 2
-1.3804802 -2.1862371 -0.50259089 1
-3.2082882 -5.0808983 0.52572346 1
-1.6948591 -2.6841125 -0.50278038 1
-3.149904 -4.9884362 0.7243914 1
-2.2924771 -3.6305478 -0.52720678 1
-3.4888575 -5.5252299 1.0349704 37
-16.225096 -25.695341 5.9070649 9
-3.5168421 -5.5695486 -0.34520796 21
-16.143642 -25.566343 6.9806809 14
-4.8396883 -7.6645117 -0.15822351 27
-9.6222506 -15.238555 4.8290458 2
-0.97670835 -1.5354896 -0.48761508 4
-3.9249041 -6.1703672 0.12764689 11
-1.1389956 -1.7906224 -0.48994339 2
-13.120671 -20.627092 1.2811842 20
-1.375078 -2.1617689 -0.49801147 1
-3.1716526 -4.9861755 0.51700789 1
-1.7185935 -2.701812 -0.50716054 1
-3.1557748 -4.9612141 0.72195399 1
-4.8359423 -7.6026168 -1.1063299 7
-3.4870167 -5.4819617 1.0290259 61
-16.299679 -25.62483 5.9032488 9
-5.1796637 -8.1429834 -0.50577468 45
-16.228334 -25.512669 6.9806809 14
-4.976697 -7.8238974 -0.16185361 11
-9.9060211 -15.57332 4.9455142 2
-0.97607279 -1.5221422 -0.48450926 5
-8.372097 -13.055913 0.27072173 18
-1.1529144 -1.7979188 -0.49309272 2
-3.4618423 -5.3985891 0.3361015 4
-1.3851116 -2.1600199 -0.49877471 1
-3.1866801 -4.9694858 0.51648492 4
-1.743413 -2.718775 -0.51154071 1
-3.2832355 -5.12006 0.74681532 27
-4.9666438 -7.7452607 -1.1297288 2
-3.5156162 -5.4824471 1.0315288 50
-5.232264 -8.159483 -0.84802538 2
-16.383951 -25.550043 5.8998141 19
-5.2472086 -8.1827888 -0.50943822 9
-12.764109 -19.90506 5.4591122 9
-5.019372 -7.8274875 -0.16230738 69
-10.175767 -15.868657 5.0511127 2
-0.98530781 -1.525388 -0.48657981 5
-8.411005 -13.021358 0.27058211 7
-1.1504112 -1.7809901 -0.48949349 2
-3.4862278 -5.3971457 0.33672956 26
-1.3986583 -2.1653097 -0.50106442 1
-3.2258439 -4.9940367 0.52014548 1
-3.9528573 -6.1195507 -1.1538606 16
-3.2528045 -5.0357752 0.73609084 1
-4.8802838 -7.5553308 -1.10438 11
-3.5316336 -5.4674401 1.0309031 9
-3.4063787 -5.2735291 -0.54925549 2
-16.448349 -25.464239 5.8925633 28
-7.6410918 -11.82943 -0.73804164 2
-16.40605 -25.398754 6.9806809 7
-5.0084109 -7.7536883 -0.16112062 15
-10.51554 -16.279461 5.1929455 3
-0.9951086 -1.528242 -0.48865035 4
-3.3029423 -5.0725069 0.10565687 1
-1.1548045 -1.7734957 -0.4885937 2
-3.4809198 -5.3458366 0.33432209 56
-3.4767814 -5.3394809 0.55744815 13
-1.7472605 -2.6833622 -0.50716054 1
-4.0002279 -6.1433659 0.90012699 45
-4.9945979 -7.6704741 -1.1238791 2
-3.5451818 -5.4445271 1.0290259 19
-3.4158998 -5.2459817 -0.5476867 22
-10.828456 -16.629845 3.8573947 4
-5.4229984 -8.328392 -0.52084744 9
-12.769841 -19.611334 5.4028745 50
-4.0045581 -6.1500163 -0.12810066 73
-10.857647 -16.674675 5.3316722 3
-0.99381393 -1.5152414 -0.48554453 4
-3.3625169 -5.126739 0.10701816 3
-1.1692294 -1.7826926 -0.49219289 2
-3.4778161 -5.3025327 0.33233333 46
-1.4072803 -2.1456425 -0.49877471 1
-3.5119519 -5.3545785 0.56023711 73
-1.7669829 -2.6940713 -0.51028925 1
-3.5578794 -5.424603 0.79653805 60
-4.0194893 -6.128407 -0.89988321 7
-3.5578001 -5.4244819 1.0274615 45
-3.4398334 -5.2446213 -0.54873258 45
-13.0876 -19.954311 4.6385665 6
-5.5086417 -8.3988771 -0.52639502 54
-12.855111 -19.59984 5.4114227 9
-11.663011 -17.782278 5.6981602 3
-1.0036225 -1.5180347 -0.48761508 4
-3.4981849 -5.2911983 0.11071806 51
-1.1703818 -1.7702672 -0.48994339 2
-3.5038364 -5.2997465 0.33296135 94
-1.4173006 -2.1437454 -0.49953794 1
-3.513973 -5.3150787 0.55744815 79
-3.5220976 -5.3273673 -1.0115052 5
-3.5722637 -5.4032469 0.79531932 85
-4.0386395 -6.1086659 -0.89915204 16
-3.5787473 -5.4130535 1.0277745 58
-3.4557364 -5.2269926 -0.54820961 45
-13.03505 -19.716236 4.5942988 6
-4.9500914 -7.487287 -0.47039557 14
-12.99457 -19.655005 5.4397664 9
-3.5191388 -5.3228922 -0.11138126 75
-12.087152 -18.282488 5.8726044 7
-0.99366045 -1.4921868 -0.48036814 4
-3.5201454 -5.2862267 0.11085769 81
-1.1859668 -1.7809745 -0.49399251 2
-3.5202847 -5.2864356 0.33285668 100
-3.5093167 -5.2699647 -1.230718 14
-3.5282662 -5.2984219 0.55692518 93
-3.5156569 -5.2794862 -1.0046221 9
-3.527447 -5.2971911 0.78142625 84
-4.210711 -6.3232536 -0.93278795 2
-3.5846343 -5.38307 1.0243329 14
-3.4697378 -5.2105293 -0.5476867 55
-12.523636 -18.806829 4.3920417 5
-4.9804277 -7.4791427 -0.47091892 2
-12.53366 -18.821884 5.220664 83
-3.5356624 -5.3095284 -0.11134636 68
-16.863317 -25.323759 8.1522827 16
-0.99860328 -1.4888835 -0.48036814 4
-3.5231755 -5.2529345 0.11040393 54
-1.1810113 -1.7608477 -0.48949349 2
-3.5333457 -5.2680979 0.33243799 100
-3.5289602 -5.2615595 -1.2314813 14
-3.5469267 -5.2883472 0.55709952 100
-3.5199411 -5.2481122 -1.0008677 9
-3.5239847 -5.2541409 0.77679521 79
-3.556051 -5.3019509 -0.7838636 5
-3.4914367 -5.2056131 -0.54838395 57
-13.164433 -19.62772 4.5939174 12
-3.564496 -5.3145423 -0.33536881 47
-13.122469 -19.565153 5.4388666 9
-3.5398836 -5.2778459 -0.11092749 12
-16.941822 -25.259678 8.1496944 37
-1.0121863 -1.4983704 -0.48450926 4
-3.5495305 -5.2544789 0.11068316 79
-1.1857531 -1.7553067 -0.48904359 2
-3.5396159 -5.2398019 0.33139127 100
-3.5463889 -5.2498283 -1.2314813 6
-3.5633287 -5.2749047 0.55692518 76
-3.5340078 -5.2315001 -0.99992913 11
-3.5291655 -5.2243319 0.77411407 84
-3.554723 -5.2621655 -0.77972007 18
-3.6456895 -5.3968263 1.0315288 1
-3.5164869 -5.2055635 -0.54960412 60
-16.984642 -25.142887 5.8979058 28
-3.5642121 -5.2762122 -0.33369407 49
-16.877621 -24.984459 6.9608855 14
-3.3816245 -5.0059223 -0.10544744 3
-17.022247 -25.198555 8.1481409 37
-1.0187585 -1.4962473 -0.4850269 3
-3.5777688 -5.2546573 0.1109624 72
-1.1932755 -1.7525598 -0.48949349 2
-3.5621691 -5.2317462 0.3317053 98
-3.561187 -5.2303038 -1.2299548 14
-3.5456345 -5.2074618 0.55117291 60
-3.4008486 -4.9948149 -0.95706606 15
-3.5415866 -5.2015166 0.77265161 87
-3.5572276 -5.2244887 -0.77606398 31
-3.5523627 -5.2173433 -0.55221879 57
-17.082207 -25.088579 5.8998141 38
-3.5644171 -5.2350478 -0.33191463 71
-16.957014 -24.904713 6.9559364 14
-3.5676398 -5.2397809 -0.11064826 25
-17.107967 -25.126415 8.1450357 32
-1.0215296 -1.4896743 -0.48399162 4
-3.6053524 -5.2576065 0.11127654 76
-1.2001827 -1.7502003 -0.48994339 2
-3.5840168 -5.2264934 0.33212397 98
-3.5762911 -5.2152271 -1.2291915 18
-3.576405 -5.2153935 0.55326468 60
-3.5559211 -5.1855221 -0.99586183 5
-3.5677972 -5.2028408 0.77460152 100
-3.5756557 -5.2143006 -0.7763077 36
-16.109451 -23.492062 4.51157 16
-3.5842927 -5.2268958 -0.55448484 15
-17.126448 -24.975126 5.8864574 18
-3.5896645 -5.2347293 -0.33264732 90
-17.021875 -24.822628 6.9487381 21
-3.5804722 -5.2213244 -0.11050864 40
-17.074293 -24.899069 8.0896482 26
-1.0203924 -1.4763849 -0.48088577 3
-3.6257353 -5.2460022 0.11131145 46
-1.2121294 -1.7538052 -0.49219289 2
-3.6201823 -5.2379675 0.33369407 88
-3.6165903 -5.2327704 -1.2364423 12
-3.6272147 -5.2481427 0.5581454 91
-3.5872574 -5.1903296 -0.99930334 13
-3.5936143 -5.1995273 0.77606398 90
-3.6026437 -5.2125916 -0.77801389 47
-16.229139 -23.481609 4.520956 4
-3.6011603 -5.2104454 -0.55413622 5
-17.085039 -24.719995 5.8410449 37
-3.6054199 -5.2166085 -0.33233333 71
-17.095013 -24.734425 6.9415398 35
-3.608681 -5.2213268 -0.11078788 59
-17.110519 -24.756861 8.0637665 26
-1.0310593 -1.4807409 -0.48347399 4
-1.212676 -1.7415671 -0.48994339 2
-3.6555636 -5.2498846 0.33526415 92
-4.1318188 -5.9338522 -1.4054991 6
-3.652343 -5.2452598 0.55919123 85
-3.6109972 -5.1858816 -1.0008677 5
-3.6151452 -5.1918387 0.77679521 73
-3.6208169 -5.1999841 -0.77801389 31
-17.163242 -24.648743 4.7571721 37
-3.6375425 -5.2240043 -0.55692518 2
-17.188053 -24.684374 5.8467693 27
-3.4763803 -4.9925537 -0.31883064 28
-17.152294 -24.63302 6.929842 42
-3.6394544 -5.2267499 -0.11117183 3
-17.303913 -24.850763 8.1139774 31
-1.0317839 -1.4708067 -0.48140341 5
-4.14575 -5.9097614 0.12600638 3
-1.2221053 -1.7421095 -0.4912931 2
-3.6796017 -5.2452679 0.3357875 64
-4.155889 -5.9242148 -1.4066439 10
-3.6797838 -5.2455273 0.56058574 73
-1.8389292 -2.6213913 -0.50716054 1
-3.6457865 -5.1970639 0.77947634 96
-3.4850435 -4.9679251 -0.74510914 34
-17.369429 -24.760099 4.7903361 13
-3.7106776 -5.2895665 -0.56529212 20
-17.399263 -24.802628 5.8891287 37
-3.7231882 -5.3073997 -0.33976504 52
-17.394855 -24.796345 6.9928284 42
-4.137711 -5.8983021 -0.12576205 3
-17.436039 -24.855053 8.1352005 36
-1.0525212 -1.4892831 -0.48865035 4
-4.169816 -5.9001532 0.12611109 1
-1.2236801 -1.7314674 -0.48949349 2
-3.7082632 -5.2470708 0.33672956 40
-4.1856079 -5.9224982 -1.4096968 6
-3.7072711 -5.245667 0.56198025 34
-1.8685898 -2.6439934 -0.51279217 1
-3.5321515 -4.9978786 -0.75144637 2
-17.466013 -24.713837 4.7931519 18
-3.7739651 -5.3400369 -0.57209027 15
-17.489134 -24.746552 5.8902736 28
-4.1186275 -5.827723 -0.37399274 2
-17.488054 -24.745024 6.9955277 28
-4.1721244 -5.903419 -0.1261809 3
-17.511545 -24.778261 8.130024 36
-1.0490067 -1.4728271 -0.48450926 5
-12.031316 -16.892216 0.36199781 10
-1.2356707 -1.7349072 -0.491743 3
-4.245399 -5.960628 0.38351789 61
-1.4772201 -2.0740476 -0.49495852 1
-1.8576401 -2.608165 -0.50716054 1
-17.538027 -24.623753 3.7118964 32
-4.2183857 -5.9227004 -0.89281482 2
-17.549601 -24.639999 4.791275 18
-17.620718 -24.739853 5.9040117 38
-5.8629146 -8.2316532 -0.5296399 21
-17.580893 -24.683935 6.9964275 28
-6.7993002 -9.5463581 -0.2045771 41
-17.597761 -24.707619 8.1279535 36
-1.0473841 -1.4597387 -0.48140341 4
-12.079716 -16.835493 0.36168367 10
-1.2417191 -1.7305833 -0.491743 2
-1.491318 -2.078449 -0.49724823 1
-17.609676 -24.542595 2.6427364 39
-1.8874618 -2.6305544 -0.51279217 1
-17.627346 -24.567223 3.7126276 39
-2.5031478 -3.4886358 -0.52720678 1
-17.6332 -24.57538 4.7906489 27
-17.710403 -24.68298 5.9051566 19
-6.2257814 -8.6768684 -0.5596807 35
-17.666948 -24.622416 6.9964275 28
-7.930738 -11.053065 -0.23745744 9
-17.674889 -24.633484 8.1238117 36
-1.0454305 -1.4468622 -0.47829759 4
-12.134307 -16.793722 0.36164877 15
-1.2417445 -1.7185583 -0.48949349 2
-17.693264 -24.487246 1.5832673 16
-1.5028014 -2.0798576 -0.49877471 1
-17.690966 -24.484064 2.6427364 39
-1.8614674 -2.5762465 -0.50340611 1
-17.70639 -24.505415 3.7121401 39
-17.721539 -24.526379 4.7925262 27
-3.5788002 -4.9530125 -0.53461331 2
-17.77721 -24.603426 5.9001956 28
-6.3480988 -8.7856855 -0.5680545 7
-17.750784 -24.566854 6.9973273 28
-6.6861072 -9.2534847 -0.19927157 24
-17.756479 -24.574736 8.1238117 36
-1.0516115 -1.444766 -0.47881523 4
-12.194031 -16.75288 0.36168367 61
-1.2431487 -1.707911 -0.48769388 3
-17.776281 -24.422106 1.583058 16
-1.5100523 -2.0745993 -0.49877471 1
-17.772804 -24.41733 2.6422136 39
-1.8843987 -2.5888982 -0.50716054 1
-17.783646 -24.432224 3.710434 45
-17.805882 -24.462772 4.7922134 32
-17.862984 -24.541222 5.9001956 19
-7.7021933 -10.581728 -0.68591505 2
-17.82955 -24.495289 6.994628 28
-7.0714078 -9.7151184 -0.20974302 17
-17.833059 -24.500109 8.1196709 36
-1.0692139 -1.4582237 -0.48450926 4
-12.251252 -16.708599 0.36164877 15
-1.2537121 -1.7098475 -0.48949349 3
-1.5312155 -2.0883145 -0.50335413 1
-17.85675 -24.353535 2.6420393 39
-1.8840797 -2.5695603 -0.50465757 1
-17.864126 -24.363594 3.7094591 32
-17.887659 -24.395691 4.791275 37
-6.7730064 -9.237215 -1.0021167 2
-17.949701 -24.480303 5.9005775 38
-7.8335633 -10.683633 -0.69428879 73
-17.910336 -24.426617 6.9928284 28
-11.968649 -16.323177 -0.3533065 30
-17.926468 -24.448616 8.1232948 36
-1.0605245 -1.4358354 -0.47829759 4
-17.920715 -24.262709 0.52650422 24
-1.2596729 -1.7054608 -0.48949349 3
-17.939226 -24.287771 1.58243 16
-1.5198332 -2.0576897 -0.49724823 1
-17.935734 -24.283043 2.6411676 39
-1.8930376 -2.562968 -0.50465757 1
-17.953779 -24.307476 3.710434 13
-17.957451 -24.312445 4.7872076 37
-18.033876 -24.415918 5.9001956 28
-6.7720041 -9.168561 -0.59736258 19
-17.986229 -24.351408 6.9892292 21
-7.1366835 -9.6622972 -0.20967321 12
-18.003666 -24.375015 8.1196709 36
-1.0721974 -1.4416114 -0.48140341 5
-17.99272 -24.191916 0.52625984 37
-1.2746253 -1.7137835 -0.49309272 3
-18.018476 -24.226545 1.5823253 33
-1.5266484 -2.0526385 -0.49724823 1
-18.011404 -24.217037 2.6404703 39
-1.8920953 -2.5439961 -0.50215465 1
-18.035473 -24.249397 3.7106779 39
-18.041512 -24.257519 4.788146 32
-18.104198 -24.341803 5.8967614 38
-6.9370599 -9.3271484 -0.60919052 28
-18.062231 -24.285376 6.9874296 28
-7.888299 -10.606126 -0.23072082 70
-18.080938 -24.310528 8.1181183 36
-1.0818563 -1.4440442 -0.48347399 4
-18.07346 -24.124161 0.52615517 37
-1.2607365 -1.6828105 -0.48544437 2
-18.08976 -24.14592 1.5811739 16
-1.5338042 -2.047297 -0.49724823 1
-18.092243 -24.149235 2.6399474 39
-1.9270208 -2.5721562 -0.50903773 1
-18.115248 -24.179939 3.7097027 39
-18.126076 -24.194393 4.788146 37
-18.165514 -24.247036 5.8891287 37
-9.5969372 -12.809837 -0.83884072 7
-18.167925 -24.250252 6.9955277 28
-8.3161411 -11.100251 -0.24209978 90
-18.16337 -24.244173 8.1170826 36
-1.0892178 -1.4433432 -0.48450926 5
-18.150331 -24.051348 0.52594572 100
-1.2677767 -1.679955 -0.48589426 1
-18.172731 -24.081034 1.5810692 33
-1.5456717 -2.0481989 -0.49877471 1
-18.177629 -24.087524 2.6401217 39
-1.9145691 -2.5370319 -0.50340611 1
-18.178017 -24.088037 3.7053156 39
-18.211611 -24.132551 4.7884588 37
-18.226391 -24.152136 5.8814964 18
-7.2462339 -9.6021223 -0.63043892 100
-18.224291 -24.149353 6.9847302 42
-9.5389214 -12.640206 -0.27641121 43
-18.245562 -24.17754 8.1160479 31
-1.0989256 -1.4456842 -0.48657981 4
-18.239016 -23.994213 0.52608532 15
-1.2948604 -1.7034447 -0.49399251 1
-18.251844 -24.011091 1.5806506 33
-1.5528117 -2.0427911 -0.49877471 1
-18.262806 -24.025511 2.640296 39
-1.928195 -2.536624 -0.50465757 1
-18.2728 -24.03866 3.7075093 45
-18.243971 -24.000732 -3.7016594 5
-16.704647 -21.975687 4.3720303 16
-18.298704 -24.072737 5.8776803 37
-18.299042 -24.073181 6.9811311 42
-7.9626274 -10.475181 -0.22967367 30
-18.329845 -24.113705 8.1160479 31
-1.1016164 -1.4387716 -0.48554453 5
-18.326307 -23.935165 0.52619004 16
-1.2889516 -1.6834416 -0.48949349 1
-18.335548 -23.947233 1.5806506 33
-1.5432237 -2.0155351 -0.49343207 1
-18.334448 -23.945797 2.6385529 39
-1.956252 -2.5549726 -0.50966346 1
-18.357807 -23.976307 3.7077529 45
-18.368834 -23.990707 4.7856431 32
-18.382624 -24.008717 5.8776803 18
-11.647766 -15.212623 -1.0041176 3
-18.387701 -24.015348 6.9829307 42
-11.533113 -15.06288 -0.33114195 16
-18.411556 -24.046507 8.1150122 36
-1.106632 -1.4349174 -0.48554453 5
-18.407303 -23.867882 0.52612025 18
-1.3043408 -1.6912773 -0.49309272 2
-18.414148 -23.876759 1.5802319 33
-1.5574436 -2.0194635 -0.49572176 1
-18.387503 -23.842209 2.6341951 19
-1.9434441 -2.5199723 -0.50403184 1
-18.441389 -23.912079 3.7077529 39
-18.391685 -23.84763 -3.6977596 5
-18.456083 -23.931135 4.786582 37
-18.454327 -23.928856 5.8738642 37
-7.9464912 -10.303841 -0.68193752 2
-18.498789 -23.986509 6.9932785 42
-10.749093 -13.937841 -0.30723217 26
-18.488304 -23.972912 8.1119061 31
-1.1068935 -1.4249433 -0.48347399 5
-18.478237 -23.787689 0.5257712 23
-1.3006728 -1.6744021 -0.48949349 2
-18.393238 -23.678267 1.5713347 49
-1.566892 -2.0171158 -0.49648499 1
-18.473061 -23.781027 2.6345439 19
-1.9449577 -2.503813 -0.50215465 1
-18.515003 -23.83502 3.7058029 39
-18.45046 -23.751932 -3.6928849 5
-18.53466 -23.860325 4.7853303 41
-18.530516 -23.85499 5.8715744 18
-8.0608253 -10.376987 -0.68863654 26
-18.599142 -23.943335 6.999577 14
-11.963073 -15.400488 -0.34039173 100
-10.430161 -13.427116 4.5557327 2
-1.1059086 -1.4134635 -0.48088577 4
-18.564856 -23.727768 0.52587593 27
-1.3089112 -1.6729213 -0.49039331 2
-18.574236 -23.739758 1.5797085 33
-1.5884409 -2.0301886 -0.50106442 1
-18.581741 -23.749352 2.6382043 39
-1.9853344 -2.5374587 -0.51028925 1
-18.59075 -23.760864 3.7043405 38
-18.533258 -23.687384 -3.6928849 5
-18.614183 -23.790813 4.7843919 41
-12.964001 -16.569307 4.0894184 4
-9.7683353 -12.484923 -0.83078098 3
-12.977435 -16.586477 4.862092 7
-18.554998 -23.71517 -0.52559668 24
-8.9389324 -11.424862 3.8869445 4
-1.1251847 -1.4278023 -0.48709744 1
-18.64633 -23.661249 0.525841 23
-1.3123305 -1.6652811 -0.48949349 2
-18.659464 -23.677916 1.5799178 33
-1.5736449 -1.9968758 -0.49419531 1
-18.665762 -23.685909 2.6383786 39
-1.9672809 -2.4963799 -0.50340611 1
-18.67112 -23.692707 3.7038531 38
-2.657649 -3.3724222 -0.52720678 1
-18.691002 -23.717936 4.7828274 37
-13.020544 -16.522411 4.0890369 4
-18.628557 -23.638697 -1.577301 17
-13.075057 -16.591587 4.8769388 3
-18.622814 -23.631409 -0.52517784 29
-8.9608221 -11.37083 3.87918 8
-1.1301618 -1.423866 -0.48709744 2
-18.72508 -23.59132 0.52573627 22
-1.3169239 -1.6591636 -0.48904359 2
-18.740759 -23.611073 1.5798131 33
-1.6025755 -2.0190499 -0.50106442 1
-18.749567 -23.622169 2.6385529 39
-2.0030007 -2.5235367 -0.51028925 1
-18.75371 -23.627388 3.7038531 38
-16.311377 -20.550346 4.1555252 14
-18.701025 -23.561012 -1.5764637 17
-10.34397 -13.032143 3.8412642 2
-18.712648 -23.575657 -0.52538723 36
-9.070118 -11.427244 3.9092028 2
-1.1259661 -1.4074479 -0.48295635 3
-18.816776 -23.520807 0.5257712 21
-1.3257196 -1.6571382 -0.48994339 2
-18.833776 -23.542059 1.5800226 33
-1.6054105 -2.0067494 -0.49953794 1
-18.821461 -23.526665 2.6359382 38
-2.0003355 -2.500402 -0.50716054 1
-18.850494 -23.562956 3.7050717 38
-14.698331 -18.372787 3.7265818 3
-12.216573 -15.270612 3.8012967 4
-11.489571 -14.361864 4.2461762 3
-18.806782 -23.508316 -0.52549195 21
-8.7349863 -10.918658 3.7466645 22
-1.12966 -1.4020047 -0.48243871 4
-18.88998 -23.444082 0.52552688 18
-1.327828 -1.6479481 -0.4885937 2
-18.915838 -23.476173 1.5800226 33
-1.6247234 -2.0164206 -0.50335413 1
-18.91847 -23.479441 2.6380301 39
-2.0090513 -2.4934044 -0.50716054 1
-18.931385 -23.495466 3.704828 38
-14.754938 -18.31214 3.7247045 3
-4.2004566 -5.2131257 -0.35086024 57
-11.576313 -14.367194 4.2596731 3
-18.874926 -23.425396 -0.52510798 32
-8.7827435 -10.900135 3.7508056 15
-1.1413598 -1.4074517 -0.48554453 4
-18.966059 -23.387728 0.52559668 22
-1.3280889 -1.6377141 -0.48679408 2
-18.978176 -23.40267 1.5790805 33
-1.6087917 -1.9838588 -0.49648499 1
-18.985865 -23.412153 2.6371584 38
-2.0069208 -2.4748061 -0.50465757 1
-19.000103 -23.429708 3.7038531 38
-18.943838 -23.360327 -3.6928849 5
-16.39006 -20.211172 4.1214223 3
-13.613519 -16.787319 4.2012324 5
-4.2092652 -5.1905961 -0.35023221 68
-18.966059 -23.387728 -0.52559668 34
-1.1511539 -1.409444 -0.48761508 5
-19.055172 -23.330675 0.52580613 20
-1.3288666 -1.627031 -0.48499447 2
-19.054697 -23.330093 1.5786618 33
-1.6157069 -1.9782311 -0.49648499 1
-19.076296 -23.356539 2.6383786 19
-1.9880569 -2.4341271 -0.49777448 1
-19.07926 -23.360168 3.7033656 38
-4.223568 -5.1712308 -0.34991822 73
-19.034931 -23.305895 -0.52524763 37
-1.146492 -1.3932815 -0.48347399 5
-19.135471 -23.254499 0.52566648 18
-1.3447269 -1.6341877 -0.4885937 2
-19.146423 -23.267809 1.5791851 33
-1.6154618 -1.9632 -0.49419531 1
-19.149115 -23.271078 2.6366355 38
-2.03462 -2.4725845 -0.50716054 1
-19.177364 -23.30541 3.7058029 39
-4.2292624 -5.139637 -0.8172558 10
-14.548599 -17.680275 3.6264637 8
-4.243762 -5.157258 -0.35002288 57
-11.681541 -14.196066 4.2443767 3
-19.118954 -23.234426 -0.52521271 35
-10.234957 -12.438095 4.3160663 11
-1.1474086 -1.3850089 -0.48192108 5
-19.206102 -23.183218 0.52549195 19
-1.3501388 -1.6297195 -0.4885937 2
-19.101156 -23.05654 1.5691366 97
-1.6219631 -1.9578321 -0.49419531 1
-19.152456 -23.118462 2.6265254 57
-2.0428081 -2.4658239 -0.50716054 1
-19.244411 -23.22946 3.7038531 38
-4.2450161 -5.1240554 -0.81701207 15
-4.1652908 -5.0278206 -0.57121873 2
-13.763515 -16.613604 4.1936002 5
-11.736012 -14.166254 4.247076 3
-19.190794 -23.16474 -0.52507311 39
-10.273682 -12.401111 4.3150311 18
-1.1534739 -1.3824786 -0.48243871 5
-19.283068 -23.111427 0.52538723 18
-1.3458316 -1.6130261 -0.48499447 2
-19.314594 -23.149214 1.5800226 33
-1.6363339 -1.9612032 -0.49648499 1
-19.309624 -23.143257 2.6369841 38
-2.0311549 -2.4344099 -0.50215465 1
-19.322836 -23.159094 3.7033656 38
-4.2755942 -5.1244488 -0.81944948 25
-16.417551 -19.677008 4.0588489 3
-4.1355882 -4.9566464 -0.56476921 5
-11.775403 -14.113231 4.2434769 3
-19.284348 -23.112963 -0.52542216 35
-10.318145 -12.366656 4.3155489 18
-1.1630222 -1.3845628 -0.48450926 5
-19.366032 -23.055012 0.52556175 23
-1.3599471 -1.6189995 -0.4881438 2
-19.370699 -23.060568 1.5783478 33
-1.635252 -1.9467465 -0.49419531 1
-19.379854 -23.071468 2.6361127 38
-2.0468397 -2.4367363 -0.50403184 1
-19.398252 -23.093369 3.7031219 44
-4.2785192 -5.0935221 -0.81676835 20
-15.123236 -18.004017 3.7240789 3
-4.1917281 -4.9901986 -0.57017285 2
-19.367319 -23.056543 -0.52559668 29
-1.1758192 -1.3889337 -0.48761508 5
-19.454414 -22.980482 0.52556175 16
-1.3611171 -1.6078165 -0.48634419 2
-19.465555 -22.993643 1.5788711 16
-1.6452519 -1.9434501 -0.49495852 1
-19.4786 -23.00905 2.6375072 38
-2.0817077 -2.4590125 -0.51028925 1
-19.488064 -23.020231 3.7033656 44
-19.506277 -23.041746 4.7815757 32
-4.1722383 -4.9284468 -0.56494355 2
-16.751886 -19.788128 5.0396471 29
-4.3476171 -5.1356125 -0.35263968 2
-11.669596 -13.784683 4.1696925 2
-19.450539 -22.975903 -0.52545702 27
-1.1653814 -1.3673832 -0.48140341 5
-1.3778177 -1.6166424 -0.49039331 2
-19.554653 -22.944166 1.5799178 16
-1.6644223 -1.9529256 -0.49877471 1
-19.549623 -22.938265 2.6368098 38
-2.1052265 -2.4701369 -0.51404363 1
-19.56172 -22.952457 3.7028782 38
-2.7851501 -3.267915 -0.52720678 1
-19.605642 -23.003996 4.7872076 4
-3.4777575 -4.0805759 -0.46907219 2
-16.817415 -19.732468 5.0396471 7
-4.3179846 -5.0664439 -0.34887147 2
-11.727883 -13.760741 4.174192 34
-19.524027 -22.908234 -0.52538723 83
-12.581107 -14.761858 5.1970863 3
-1.1648775 -1.3576466 -0.47933286 5
-4.9012737 -5.7123585 0.13138172 10
-1.386978 -1.6165013 -0.491743 2
-19.62933 -22.877678 1.5798131 33
-1.6555482 -1.9295157 -0.49419531 1
-19.630772 -22.879358 2.6375072 38
-2.0748169 -2.4181669 -0.50465757 1
-19.645481 -22.896502 3.7043405 38
-2.7959714 -3.2586613 -0.52720678 1
-3.478296 -4.0538998 -0.46732908 2
-4.3204556 -5.0354238 -0.34772009 4
-11.783604 -13.733606 4.1777911 34
-5.2229037 -6.087213 -0.1400032 77
-12.622442 -14.71126 5.1939807 3
-1.1756873 -1.3610861 -0.48192108 5
-4.3254271 -5.0075207 0.11550003 46
-1.3846878 -1.6030446 -0.48904359 2
-19.707699 -22.815483 1.5800226 33
-1.6799046 -1.9448153 -0.49953794 1
-19.709139 -22.81715 2.6378558 39
-2.0647466 -2.3903446 -0.5002774 1
-19.717407 -22.826721 3.7036092 44
-17.14295 -19.846289 4.1536479 3
-3.4969296 -4.0483742 -0.46802634 2
-4.3449631 -5.0301375 -0.34834811 16
-11.836724 -13.703303 4.1804905 37
-4.3659496 -5.0544333 -0.11658207 100
-12.235483 -14.164945 5.0153956 5
-1.187009 -1.3640544 -0.48450926 5
-4.3542533 -5.0037017 0.11577927 85
-1.3815992 -1.5876683 -0.48589426 2
-19.783323 -22.734056 1.5793945 33
-1.6844438 -1.935683 -0.49877471 1
-19.791327 -22.743256 2.6376815 38
-2.1123962 -2.4274657 -0.50966346 1
-19.810061 -22.764784 3.7053156 39
-19.834999 -22.79344 4.7856431 27
-3.4934335 -4.0144882 -0.46558598 2
-13.801614 -15.860161 4.0867472 4
-4.3764815 -5.0292454 -0.34939486 100
-11.877914 -13.649537 4.177341 37
-4.3818202 -5.0353804 -0.11651227 99
-10.568945 -12.145331 4.3139958 2
-1.1889797 -1.3572044 -0.48347399 4
-4.3695045 -4.9877305 0.11574436 70
-1.3971294 -1.5948045 -0.48949349 2
-19.862551 -22.672834 1.5797085 33
-1.6856787 -1.9241797 -0.49724823 1
-19.864012 -22.674503 2.6373327 19
-2.0970042 -2.393702 -0.50403184 1
-19.871054 -22.682541 3.7026343 19
-19.887045 -22.700794 4.7800117 13
-3.5119784 -4.0088763 -0.46628323 2
-13.859306 -15.820212 4.0882735 4
-11.916693 -13.602744 4.1750917 37
-11.253299 -12.84549 4.5759206 2
-1.1952245 -1.354286 -0.48399162 5
-4.3904023 -4.9746809 0.11581417 66
-1.3965179 -1.5823675 -0.48724398 2
-19.924372 -22.575924 1.5780338 16
-1.6771307 -1.9003247 -0.49266884 1
-17.030745 -19.297209 2.2517557 13
-2.1188345 -2.4008107 -0.50716054 1
-19.963251 -22.619976 3.7043405 19
-19.868158 -22.51223 4.7556076 22
-3.4818234 -3.9451871 -0.46035662 2
-19.973576 -22.631674 5.8673768 9
-5.3960738 -6.1141877 -0.42737541 11
-11.971627 -13.56482 4.1768913 31
-19.841497 -22.482019 -0.52339768 100
-12.56328 -14.235211 5.087347 2
-1.1907271 -1.3402057 -0.48036814 5
-4.4028907 -4.9556098 0.11570945 67
-1.4082291 -1.585012 -0.48949349 2
-19.935452 -22.438059 1.5730095 16
-1.6964629 -1.9094293 -0.49648499 1
-17.003332 -19.137856 2.2397282 38
-2.100544 -2.3642368 -0.50090313 1
-19.004469 -21.390203 3.5132494 6
-17.007713 -19.142786 4.0557199 3
-3.4895937 -3.9276617 -0.4596594 2
-13.638206 -15.350286 3.9913425 4
-5.4256053 -6.1067119 -0.42810813 16
-12.023015 -13.532331 4.1791406 37
-18.934422 -21.311363 -0.497603 100
-16.929369 -19.054605 6.8297172 4
-1.1969197 -1.3372719 -0.48088577 5
-4.413022 -4.9304986 0.11550003 64
-1.4153287 -1.5812919 -0.48994339 2
-19.037193 -21.269518 1.495971 14
-1.695594 -1.8944213 -0.49419531 1
-16.996294 -18.9893 2.2296183 38
-2.1355436 -2.3859601 -0.50716054 1
-19.090683 -21.329281 3.5147119 6
-17.080397 -19.083265 4.0563455 3
-3.4800479 -3.8881228 -0.45652178 2
-5.4386272 -6.0763674 -0.42737541 19
-12.075132 -13.491077 4.1800404 34
-19.016405 -21.246292 -0.49770772 100
-16.961729 -18.950684 6.8147054 8
-1.203934 -1.3361658 -0.48192108 5
-4.4373794 -4.9247513 0.11570945 64
-1.4114335 -1.5664556 -0.48679408 2
-19.087566 -21.184015 1.4944009 14
-1.7123802 -1.9004563 -0.49724823 1
-17.035164 -18.906191 2.2264807 38
-2.1434441 -2.3788652 -0.50716054 1
-19.150679 -21.254059 3.5127621 6
-17.135651 -19.017715 4.0544686 3
-3.476918 -3.858799 -0.45443004 2
-13.321871 -14.785054 3.8684616 4
-5.4547362 -6.0538473 -0.42706141 21
-12.109368 -13.439379 4.1764412 31
-19.085417 -21.181629 -0.49767283 100
-17.063274 -18.937387 6.8302345 16
-1.2116529 -1.3343936 -0.48295635 5
-4.4576006 -4.9091568 0.11574436 60
-1.4082676 -1.5509255 -0.48364475 2
-19.172794 -21.115004 1.4947149 14
-1.7170252 -1.8909603 -0.49648499 1
-17.09424 -18.825891 2.2247374 100
-2.1419389 -2.358918 -0.50465757 1
-19.242823 -21.192125 3.5147119 6
-17.211203 -18.954702 4.0550942 3
-3.4836729 -3.83657 -0.45338416 2
-13.365345 -14.719258 3.8646455 46
-5.4886823 -6.0446873 -0.42789876 45
-12.160882 -13.392783 4.1764412 34
-16.437738 -18.102886 -0.42681605 17
-17.130669 -18.866009 6.8281641 53
-1.2108576 -1.3246647 -0.48088577 5
-4.4779034 -4.8987761 0.11584907 57
-1.4304953 -1.5649458 -0.48949349 2
-19.256184 -21.06605 1.4957616 14
-1.7179881 -1.8794597 -0.49495852 1
-17.147165 -18.758806 2.2235174 23
-2.1710739 -2.3751307 -0.50966346 1
-19.307634 -21.122337 3.513737 6
-19.262449 -21.072905 4.5218945 4
-3.4802454 -3.8073497 -0.45129243 2
-13.42468 -14.686449 3.8676984 43
-5.5248675 -6.0441432 -0.42915484 38
-12.214431 -13.362451 4.1795907 34
-15.422389 -16.871922 -0.39899692 15
-17.027603 -18.628008 6.762424 53
-1.2272495 -1.333222 -0.48554453 5
-4.4895587 -4.8772302 0.11570945 54
-1.437269 -1.5613767 -0.48994339 2
-19.328249 -20.997236 1.495657 14
-1.7218789 -1.8705626 -0.49419531 1
-17.096495 -18.572771 2.2085266 19
-2.1552701 -2.341377 -0.50403184 1
-19.389315 -21.063576 3.5151994 6
-19.333216 -21.002632 4.5212688 4
-3.4800208 -3.7805192 -0.44954932 2
-13.474533 -14.638055 3.8673167 43
-5.4972358 -5.97192 -0.42538664 47
-12.267599 -13.326902 4.1818399 31
-19.316614 -20.984596 -0.49784735 76
-17.068974 -18.542873 6.7531066 53
-1.2264116 -1.323477 -0.48347399 5
-4.5029888 -4.8593822 0.11563964 54
-1.4477371 -1.5623195 -0.491743 2
-19.408632 -20.944746 1.4964943 14
-1.7280724 -1.8648423 -0.49419531 1
-17.079447 -18.431215 2.1984165 100
-2.1361694 -2.3052385 -0.49777448 1
-19.477947 -21.019547 3.5186117 6
-17.418306 -18.796894 4.0588489 3
-3.4681623 -3.7426531 -0.44641173 2
-13.517663 -14.587531 3.8657901 42
-5.5197244 -5.9565878 -0.425596 57
-12.310401 -13.284719 4.1813903 31
-19.401045 -20.93656 -0.49823129 97
-17.136936 -18.493254 6.7556949 57
-1.2365272 -1.3246218 -0.48554453 5
-4.5248628 -4.8472304 0.11574436 51
-1.4335067 -1.535635 -0.48499447 2
-19.500259 -20.889528 1.4976457 14
-1.7402545 -1.8642366 -0.49572176 1
-17.152323 -18.374317 2.1991136 100
-2.1715634 -2.3262734 -0.50403184 1
-19.546728 -20.939308 3.5171492 6
-11.696248 -12.529531 2.7147636 36
-4.3465424 -4.6562057 -0.55727381 10
-13.585774 -14.553675 3.869988 43
-5.5142612 -5.9071174 -0.42350256 4
-12.365658 -13.246633 4.1836395 31
-19.479015 -20.866772 -0.49826619 32
-17.208557 -18.434557 6.7572474 57
-1.240913 -1.3205141 -0.48554453 5
-4.5450201 -4.8365707 0.11584907 49
-1.4546052 -1.5479141 -0.49039331 2
-19.583101 -20.839302 1.4986924 14
-1.7410493 -1.8527327 -0.49419531 1
-17.217255 -18.321693 2.1996367 100
-2.1927931 -2.3334546 -0.50716054 1
-19.643246 -20.903307 3.5220239 6
-2.9403696 -3.1289864 -0.52720678 1
-11.736381 -12.489237 2.7144508 72
-4.3783317 -4.6591892 -0.55936557 2
-13.642029 -14.517126 3.8722777 39
-12.405514 -13.201293 4.1822901 28
-5.5104432 -5.8639226 -0.14045696 7
-17.2815 -18.390059 6.7619061 45
-1.224721 -1.2932963 -0.47726232 5
-4.5676827 -4.8234391 0.11595379 46
-1.4578582 -1.5394875 -0.48949349 2
-17.152573 -18.112991 1.3073522 10
-1.7481503 -1.8460339 -0.49419531 1
-17.284737 -18.252554 2.1992881 98
-2.1854377 -2.307806 -0.50340611 1
-5.5075278 -5.8159089 -0.98348558 9
-11.772025 -12.431171 2.7116351 40
-5.526403 -5.8358412 -0.7031725 22
-13.701719 -14.468915 3.8734226 4
-5.5330439 -5.8428535 -0.42172313 80
-12.472191 -13.170542 4.1876888 2
-5.5177937 -5.8267493 -0.14007302 100
-1.2370008 -1.2976177 -0.48036814 5
-4.5836525 -4.8082657 0.11595379 46
-1.460266 -1.5318235 -0.4885937 2
-10.072577 -10.566164 0.76504701 3
-1.7569717 -1.8430687 -0.49495852 1
-2.1958046 -2.3034058 -0.50403184 1
-9.9057493 -10.391162 1.7627182 2
-5.5363717 -5.8076711 -0.98519176 4
-4.4692988 -4.6883082 -0.56668663 2
-8.5992727 -9.0206633 2.4225111 16
-9.8507452 -10.333462 3.2959828 2
-9.8853426 -10.369755 3.838804 1
-1.2361714 -1.2877172 -0.47829759 5
-4.5962543 -4.7879086 0.11584907 40
-1.4710023 -1.5323402 -0.49039331 2
-9.8479843 -10.258625 0.74526399 9
-1.7606753 -1.834092 -0.49419531 1
-9.8584671 -10.269546 1.2454556 5
-2.2175114 -2.3099773 -0.50716054 1
-9.9254646 -10.339336 1.7597933 2
-10.015054 -10.432661 2.2905135 3
-9.8212137 -10.230739 -1.2407491 7
-8.6497421 -9.0104189 2.4278536 38
-9.835536 -10.245658 -0.74432194 6
-10.094585 -10.515509 3.3652678 2
-9.951396 -10.366349 -0.25082597 64
-10.112792 -10.534474 3.9128263 4
-1.2458047 -1.2891676 -0.48036814 5
-4.6107168 -4.7712026 0.11581417 42
-1.4625337 -1.5134404 -0.48589426 2
-10.098463 -10.449963 0.76159286 10
-1.7667477 -1.8282433 -0.49419531 1
-10.101532 -10.453138 1.2717766 6
-2.2251594 -2.3026111 -0.50716054 1
-10.110058 -10.461961 1.7863609 5
-10.115484 -10.467576 2.3055313 5
-4.5952559 -4.7552037 -0.57853985 2
-8.6768456 -8.9788628 2.4270904 18
-4.6467366 -4.8084764 -0.35044158 14
-8.1306038 -8.4136076 2.7012122 3
-4.6704698 -4.8330355 -0.11731508 19
-10.140957 -10.493936 3.910238 2
-1.2518688 -1.2859771 -0.48088577 6
-4.6449113 -4.7714663 0.11623303 61
-1.4612743 -1.501088 -0.48364475 2
-10.125551 -10.401431 0.76075548 10
-1.7871312 -1.8358232 -0.49801147 1
-10.146726 -10.423182 1.2726481 6
-4.6614528 -4.7884579 -1.0584356 11
-10.140027 -10.416301 1.7848984 5
-4.6594553 -4.786406 -0.82018065 17
-10.156538 -10.433262 2.3061569 3
-4.6682444 -4.795435 -0.58551228 47
-8.6946325 -8.9315262 2.4228926 6
-4.6782608 -4.8057241 -0.35148829 92
-8.0458441 -8.2650604 2.6629705 28
-4.6700191 -4.7972579 -0.11686131 74
-10.18609 -10.463618 3.9128263 4
-1.2549977 -1.2802199 -0.48036814 5
-4.6489401 -4.7423711 0.11591888 37
-1.4828755 -1.5126773 -0.48904359 2
-10.184168 -10.388843 0.76243019 10
-1.779785 -1.815554 -0.49419531 1
-10.199784 -10.404774 1.2747399 9
-2.272002 -2.3176632 -0.51404363 1
-10.187442 -10.392182 1.7868483 5
-5.395967 -5.5044117 -0.9464373 2
-10.187364 -10.392102 2.3049054 3
-8.7188854 -8.8941116 2.4209845 8
-8.0582752 -8.2202253 2.6575718 40
-10.174193 -10.378667 -0.25368819 41
-10.227962 -10.433517 3.914897 2
-1.2662448 -1.2827054 -0.48295635 6
-4.6696801 -4.7303839 0.1160236 48
-1.4895157 -1.5088787 -0.48949349 2
-10.211951 -10.344702 0.7618022 10
-1.7888701 -1.8121246 -0.49495852 1
-10.215046 -10.347837 1.2721252 6
-2.2301192 -2.2591097 -0.50278038 1
-10.232022 -10.365034 1.7883108 5
-5.3998079 -5.4700031 -0.94375622 4
-10.229128 -10.362102 2.3061569 3
-8.7112598 -8.824502 2.4102993 22
-8.6502714 -8.7627211 -0.64530236 2
-8.0923967 -8.1975937 2.6593714 45
-10.218788 -10.351628 -0.25389761 37
-10.253462 -10.386752 3.9107559 4
-1.2584568 -1.265947 -0.47829759 5
-1.4837826 -1.4926138 -0.48589426 2
-10.267712 -10.328823 0.76326758 10
-1.7841119 -1.7947305 -0.4919056 1
-10.253914 -10.314943 1.2724738 3
-2.2574885 -2.2709246 -0.50716054 1
-10.268141 -10.329255 1.7883108 5
-5.376884 -5.408886 -0.93644404 7
-10.270806 -10.331936 2.3074083 3
-10.319933 -10.381354 -1.2806665 3
-8.7572346 -8.8093557 2.4144971 18
-10.231101 -10.291995 -0.76054609 6
-8.1085968 -8.1568575 2.6553223 56
-10.256269 -10.317313 -0.25393251 32
-10.310085 -10.371449 3.9185205 2
-1.2749465 -1.2740568 -0.48295635 5
-10.255065 -10.247908 0.25305989 6
-1.4983733 -1.4973276 -0.48904359 2
-10.292017 -10.284835 0.76253486 6
-1.8178279 -1.8165593 -0.49953794 1
-10.302156 -10.294967 1.274217 3
-2.2789795 -2.277389 -0.51028925 1
-10.298125 -10.290938 1.7875795 2
-5.3568783 -5.3531399 -0.9298631 7
-10.31619 -10.30899 2.3099113 3
-10.354301 -10.347075 -1.2806665 3
-8.8197289 -8.8135738 2.4236557 2
-10.282127 -10.274952 -0.7618022 12
-8.1314669 -8.1257915 2.6539726 64
-10.293256 -10.286073 -0.25400233 32
-10.347155 -10.339933 3.9195557 2
-1.2752723 -1.2655163 -0.48140341 5
-10.313484 -10.234586 0.25361836 6
-1.5035908 -1.4920882 -0.48904359 3
-10.329273 -10.250253 0.76263958 6
-1.8241578 -1.8102028 -0.49953794 1
-10.343687 -10.264557 1.2749141 3
-2.284111 -2.2666373 -0.50966346 1
-10.350893 -10.271708 1.7905043 5
-5.3670774 -5.3260188 -0.92840064 2
-10.352113 -10.272918 2.3099113 3
-10.367729 -10.288415 -1.2778774 3
-10.319349 -10.240405 -0.76190686 6
-8.148715 -8.0863762 2.6503732 61
-10.329098 -10.250079 -0.25400233 32
-10.391412 -10.311916 3.9226615 2
-1.27693 -1.2583451 -0.48036814 4
-10.349147 -10.198523 0.25361836 6
-1.5032378 -1.4813592 -0.48724398 2
-10.377793 -10.226751 0.76358157 6
-1.8192785 -1.7928001 -0.49648499 1
-10.38513 -10.233982 1.2756114 3
-2.2807531 -2.2475581 -0.50716054 1
-10.378201 -10.227154 1.789042 5
-5.3912916 -5.3128252 -0.92937559 2
-10.390722 -10.239492 2.3105371 3
-10.403579 -10.252162 -1.2778774 3
