# .PCD v0.7 - Point Cloud Data file format
VERSION 0.7
FIELDS x y z intensity
SIZE 4 4 4 4
TYPE F F F F
COUNT 1 1 1 1
WIDTH 1271
HEIGHT 1
VIEWPOINT 0 0 0 1 0 0 0
POINTS 1271
DATA ascii
-4.3113012 -0.83022571 1.0136294 1
-4.2905059 -0.82622123 -0.076267019 2
-4.3270535 -0.83325922 1.1807325 2
-1.7216669 -0.32562357 -0.46949774 5
-4.2873278 -0.81087399 0.076162301 2
-2.0354259 -0.38496566 -0.47824594 3
-4.3174286 -0.81656706 0.23027821 1
-2.4190352 -0.45751876 -0.47854897 1
-4.2481713 -0.80346829 0.37825593 2
-3.0589631 -0.57855004 -0.49308142 1
-4.2404146 -0.80200124 0.52988791 1
-3.9439368 -0.74592751 -0.49283963 3
-4.2720671 -0.80798769 0.6886245 2
-4.2971134 -0.81272483 -0.38261372 3
-4.2940769 -0.81215048 0.84948164 1
-4.3135037 -0.81582475 -0.23006886 1
-4.3140306 -0.81592435 1.0136294 1
-4.2932224 -0.81198883 -0.076267019 4
-4.3259969 -0.81818759 1.1796972 2
-1.7380449 -0.32212758 -0.47363886 6
-4.3060007 -0.79807001 0.076441541 2
-2.0195782 -0.37430668 -0.47419682 2
-4.3086095 -0.79855359 0.22965017 2
-2.4245567 -0.44936502 -0.47931221 1
-4.2138662 -0.78099394 0.374944 1
-3.022217 -0.56013483 -0.48682407 1
-4.2335663 -0.78464514 0.52866924 2
-3.9388368 -0.73002028 -0.49186468 3
-4.2827687 -0.79376429 0.68987602 2
-4.3020225 -0.79733276 -0.38278803 3
-4.0499363 -0.75061131 0.80063456 1
-4.3086095 -0.79855359 -0.22965017 1
-4.3169918 -0.80010718 1.0136294 1
-4.3197641 -0.80062091 -0.076685876 2
-4.31567 -0.79986215 1.1760738 2
-1.7429602 -0.31674954 -0.47467414 5
-4.3087602 -0.78303444 0.076441541 2
-2.0342937 -0.36969385 -0.47734615 2
-4.2170472 -0.76636738 0.22462593 1
-2.4454267 -0.44440934 -0.48312837 1
-4.1577582 -0.75559276 0.36971465 1
-3.0435891 -0.55311388 -0.48995274 1
-4.0702658 -0.73969269 0.50795144 1
-3.9179239 -0.71200746 -0.48893979 3
-3.9298451 -0.71417391 0.63262099 1
-4.3420248 -0.78907967 -0.38609993 1
-3.950156 -0.71786499 0.7804088 1
-4.3054757 -0.7824375 -0.22933616 3
-4.3005853 -0.7815488 1.0091305 1
-4.3028579 -0.7819618 -0.076336823 4
-4.3051305 -0.78237486 1.1724503 2
-1.7403054 -0.30968225 -0.47363886 6
-4.3037262 -0.7658354 0.076301917 2
-2.0490654 -0.36462516 -0.48049545 2
-3.9327381 -0.69981921 0.20934382 2
-2.4547706 -0.43681923 -0.48465484 1
-3.9329572 -0.69985819 0.34949452 2
-3.068934 -0.54610777 -0.49370718 1
-3.9341879 -0.70007718 0.49064597 2
-3.9244161 -0.69833833 -0.48942727 3
-3.9324362 -0.6997655 0.63262099 1
-4.2978101 -0.76478267 -0.38191646 1
-3.9585593 -0.70441401 0.78155363 1
-4.3004489 -0.76525229 -0.22891748 3
-4.2765603 -0.76100141 1.0028318 1
-4.278132 -0.76128107 -0.075848155 2
-3.9941437 -0.71074617 1.0870399 1
-1.7184858 -0.29992378 -0.46742719 6
-4.2904825 -0.7488091 0.076022685 2
-2.0521829 -0.35816324 -0.48094535 3
-3.9468422 -0.68883425 0.20997186 1
-2.4484696 -0.42732635 -0.48312837 1
-3.9352562 -0.68681216 0.34949452 2
-3.0084572 -0.52505982 -0.48369536 1
-3.952132 -0.68975747 0.49259588 2
-3.9247546 -0.68497932 -0.48918355 6
-3.9483569 -0.6890986 0.63481104 1
-4.3003225 -0.75052643 -0.38191646 1
-3.9357312 -0.68689501 0.77659261 1
-4.3206706 -0.75407773 -0.22985952 1
-3.9527078 -0.68985796 0.92634845 1
-4.2924528 -0.7491529 -0.076057591 2
-3.9508047 -0.68952578 1.0746167 2
-1.7462336 -0.29817551 -0.47467414 5
-4.1768994 -0.71322024 0.073963299 1
-2.0573237 -0.35129523 -0.48184517 3
-3.9493403 -0.67436373 0.20997186 1
-2.4422784 -0.41702759 -0.48160189 1
-3.9377472 -0.67238414 0.34949452 1
-3.0493054 -0.52067959 -0.48995274 1
-3.9663742 -0.67727232 0.49405831 5
-3.9507201 -0.67459929 -0.4921084 7
-3.921648 -0.66963518 0.63011801 1
-4.2853689 -0.73174173 -0.38034767 3
-3.9188697 -0.66916072 0.77277642 1
-4.1619668 -0.71067041 -0.22127642 1
-3.9552097 -0.67536592 0.92634845 1
-3.9718983 -0.67821556 -0.070333198 1
-3.9609225 -0.67634141 1.0766872 2
-1.7338753 -0.29015121 -0.47105065 4
-3.9386246 -0.65909976 0.069704913 3
-2.0354133 -0.34061134 -0.47644633 3
-3.9160974 -0.65532994 0.20808776 1
-2.4281573 -0.40633416 -0.47854897 1
-3.9242349 -0.65669167 0.34810004 2
-3.0120494 -0.50404423 -0.48369536 1
-3.9490197 -0.66083926 0.49162093 3
-3.9255252 -0.65690762 -0.48869607 10
-3.9218988 -0.65630078 0.62980515 1
-3.9497807 -0.66096658 -0.35036609 3
-3.9017041 -0.65292132 0.76896024 1
-3.9476151 -0.66060424 -0.20976251 3
-3.9305193 -0.65774333 0.92004979 1
-3.9386246 -0.65909976 -0.069704913 3
-3.9707649 -0.66447818 1.0787578 2
-1.7444596 -0.2853536 -0.47363886 3
-3.9449608 -0.64530516 0.069774725 2
-2.0404942 -0.33377808 -0.47734615 3
-3.918473 -0.64097232 0.20808776 2
-2.4141302 -0.39489633 -0.47549602 1
-3.932514 -0.64326912 0.34862298 2
-3.0138767 -0.49300113 -0.48369536 1
-3.9474971 -0.64572001 0.49113345 2
-3.9220295 -0.64155406 -0.48796484 13
-3.9398737 -0.64447302 0.63230813 1
-3.9403791 -0.64455569 -0.3493202 3
-3.927321 -0.64241964 0.77353966 1
-3.9480388 -0.64580864 -0.20965785 3
-3.9405963 -0.64459121 0.92184943 1
-3.937067 -0.64401388 -0.069635101 3
-3.9769866 -0.65054387 1.0797931 1
-1.7606566 -0.28201151 -0.47777995 2
-3.94313 -0.63158709 0.069704913 2
-2.060832 -0.3300918 -0.48184517 3
-3.9343817 -0.63018584 0.20882046 1
-2.4231806 -0.38813064 -0.4770225 2
-3.9365928 -0.63054001 0.34879729 2
-3.0545053 -0.48925248 -0.48995274 1
-3.953537 -0.63325399 0.49162093 2
-3.9241352 -0.62854463 -0.48796484 13
-3.9302862 -0.62952983 0.63043088 2
-3.9483967 -0.63243067 -0.34984314 1
-3.9468765 -0.63218719 0.7769742 2
-3.9363539 -0.63050175 -0.20892514 1
-3.985045 -0.63830078 0.93174726 1
-3.9372065 -0.6306383 -0.069600195 3
-4.0744991 -0.65262902 1.105675 1
-1.7616785 -0.27555647 -0.47777995 1
-3.9434428 -0.61682153 0.069670007 2
-2.0466254 -0.32012704 -0.47824594 3
-3.942585 -0.61668736 0.20913447 3
-2.4207075 -0.37863985 -0.47625926 1
-3.9329722 -0.61518377 0.34827435 3
-3.0250516 -0.47316954 -0.48494685 1
-3.9558313 -0.61875933 0.49162093 3
-3.9264126 -0.61415774 -0.48796484 9
-3.944277 -0.616952 0.63230813 1
-3.9565935 -0.61887854 -0.35036609 3
-3.949167 -0.61771691 0.7769742 1
-3.9544244 -0.61853927 -0.20976251 3
-4.1798906 -0.65380603 0.9767375 1
-3.9928346 -0.62454724 -0.070542626 1
-4.9853783 -0.77979797 1.3520707 1
-1.7052938 -0.26094663 -0.46225083 3
-2.043823 -0.31274888 -0.47734615 3
-3.9682996 -0.60723513 0.21039054 2
-2.4530005 -0.37536183 -0.48236513 1
-3.9349906 -0.60213816 0.34827435 3
-3.0070775 -0.46014753 -0.48181814 1
-3.9421635 -0.60323578 0.48967102 2
-3.9657104 -0.606839 -0.49259588 1
-3.9228694 -0.60028338 0.62855369 1
-3.9298465 -0.60135102 0.77277642 2
-4.8646221 -0.74439174 -0.25791159 1
-5.025763 -0.76904976 1.1737946 1
-4.9990406 -0.76496071 -0.08827427 2
-4.9955754 -0.7644304 1.3541412 1
-1.734899 -0.25897285 -0.47001538 5
-4.8752327 -0.72773856 0.086040363 1
-2.0256817 -0.30237874 -0.4728471 3
-3.9270403 -0.5861994 0.20808776 2
-2.4504764 -0.36578891 -0.48160189 1
-3.9509649 -0.58977073 0.34949452 1
-3.059541 -0.45670554 -0.48995274 1
-3.9580913 -0.5908345 0.4913772 1
-3.9188247 -0.58497304 -0.48650241 4
-4.0324984 -0.60194141 0.64576149 1
-3.9514415 -0.58984184 0.77659261 2
-4.8673177 -0.72655702 -0.25791159 1
-5.0208383 -0.74947345 1.171995 1
-4.3678184 -0.65199548 1.1833206 1
-1.7281018 -0.25210279 -0.46794483 6
-4.8776193 -0.7115677 0.086040363 1
-2.0459566 -0.29847279 -0.47734615 3
-3.9408207 -0.57490355 0.2087158 5
-2.4516759 -0.35766083 -0.48160189 1
-3.9686711 -0.5789665 0.35088903 1
-3.0610385 -0.44655722 -0.48995274 1
-4.1132441 -0.60005742 0.51038879 1
-3.9227071 -0.5722611 -0.48674616 4
-4.055974 -0.59170258 0.649203 1
-4.9386592 -0.72047246 -0.43665028 2
-3.9669747 -0.57871902 0.77926391 1
-4.8697 -0.71041244 -0.25791159 1
-4.9731593 -0.72550553 1.1602975 1
-4.4693608 -0.65200919 1.2102379 1
-1.7481405 -0.24848595 -0.47312123 5
-4.8287196 -0.68636876 0.085132837 1
-2.0470369 -0.29097199 -0.47734615 4
-3.9527884 -0.56186122 0.20923916 1
-2.4374206 -0.34646228 -0.47854897 1
-3.9549861 -0.5621736 0.34949452 1
-3.0626547 -0.43533495 -0.48995274 1
-4.2117176 -0.59866619 0.52233201 18
-3.9149516 -0.55648303 -0.48552746 4
-4.0366025 -0.57377481 0.64576149 1
-3.9729567 -0.56472802 0.78002715 1
-4.9236832 -0.69986719 -0.26063305 1
-4.9835024 -0.70837009 1.1620971 1
-4.7433133 -0.67422885 1.2837424 1
-1.7374316 -0.24139765 -0.47001538 7
-4.8268909 -0.67064518 0.085063025 1
-2.0518012 -0.28507596 -0.47824594 3
-3.9584904 -0.54999012 0.2094485 1
-2.4618318 -0.34204534 -0.48312837 1
-4.0751386 -0.56619716 0.35995322 1
-3.032702 -0.42136168 -0.48494685 1
-4.2155437 -0.58570498 0.52257574 1
-3.9107819 -0.54336154 -0.48479626 5
-4.0775166 -0.56652755 0.65201885 1
-4.9237146 -0.68409777 -0.43490717 2
-4.122499 -0.57277739 0.80903012 1
-4.9100318 -0.68219668 -0.2597957 1
-4.9702621 -0.69056499 1.1584979 1
-4.6152921 -0.64124572 1.248543 1
-1.7344759 -0.23451033 -0.4689801 6
-4.8649864 -0.65777194 0.085691318 1
-2.0528324 -0.27755383 -0.47824594 3
-3.9941268 -0.54002714 0.21122792 1
-2.4397223 -0.3298634 -0.47854897 1
-4.2904243 -0.58008814 0.37877885 1
-3.065547 -0.41447821 -0.48995274 1
-4.3042188 -0.58195317 0.53330022 1
-3.9442222 -0.53327978 -0.48869607 3
-4.1167593 -0.55660772 0.65796334 1
-4.8867006 -0.66070783 -0.43142092 2
-4.2023926 -0.56818575 0.82429487 1
-4.9006233 -0.66259027 -0.25916764 1
-4.9379983 -0.66764361 1.1503997 1
-4.8293166 -0.65294921 -0.085063025 2
-4.6980176 -0.63519686 1.2702838 4
-1.7466955 -0.23057713 -0.47208595 7
-4.8392739 -0.63882107 0.085202649 1
-2.0305104 -0.26804286 -0.4728471 3
-4.0769873 -0.5381934 0.21551947 1
-2.4290683 -0.32065555 -0.47625926 1
-4.3514829 -0.57442898 0.3840082 1
-3.0041656 -0.39657277 -0.47994095 1
-4.266665 -0.56323236 0.52842546 1
-3.9281659 -0.51854789 -0.48650241 2
-4.1850729 -0.55246156 0.66860092 1
-4.8689995 -0.64274508 -0.42967781 2
-4.2683868 -0.56345963 0.83688825 1
-4.8789201 -0.64405465 -0.25791159 1
-4.9999628 -0.66003323 1.1643467 15
-4.815484 -0.63568062 -0.084783792 2
-4.719142 -0.62296277 1.2754602 9
-1.7513219 -0.22497089 -0.47312123 6
-4.8771753 -0.62651104 0.085830934 1
-2.0546279 -0.26393291 -0.47824594 3
-4.1838326 -0.53744584 0.22106709 1
-2.445751 -0.3141757 -0.47931221 1
-4.3890324 -0.56380528 0.38714582 1
-3.029043 -0.38910407 -0.48369536 1
-4.3788643 -0.56249911 0.54207486 3
-3.9260142 -0.504327 -0.48601493 2
-4.394659 -0.56452811 0.701765 1
-4.8811383 -0.62702012 -0.25791159 1
-4.7740388 -0.61326236 -0.084015884 13
-4.9837947 -0.64020711 1.3463767 24
-1.7463456 -0.21813792 -0.47156829 5
-4.9210024 -0.61468774 0.086563937 27
-2.0555367 -0.25675932 -0.47824594 3
-4.4671073 -0.55799121 0.23593049 1
-2.4507289 -0.3061232 -0.48007542 1
-4.3791118 -0.54699957 0.38609993 1
-3.0343029 -0.37901807 -0.48432112 1
-4.3965597 -0.54917902 0.54402477 16
-3.9316902 -0.4911117 -0.48650241 2
-4.420125 -0.55212259 0.70551944 1
-4.887207 -0.6104663 -0.43089798 4
-5.024189 -0.62757689 0.98419279 100
-4.9169888 -0.61418641 -0.259691 31
-5.0218525 -0.627285 1.1683958 88
-4.9011598 -0.61220914 -0.086214885 45
-5.0090022 -0.62567991 1.3525883 72
-1.7298365 -0.2099459 -0.46690956 6
-4.919148 -0.59702462 0.086494125 42
-2.0564206 -0.24958259 -0.47824594 3
-4.6514368 -0.56453323 0.2455603 1
-2.4322929 -0.2952013 -0.47625926 1
-4.3968172 -0.53363067 0.38749444 2
-4.9103107 -0.59595209 -0.78342378 16
-4.5265408 -0.54937488 0.55986774 2
-3.9333806 -0.47738454 -0.48650241 2
-4.4769325 -0.54335409 0.71427977 2
-4.9031534 -0.59508342 -0.43211818 50
-5.0049105 -0.60743344 0.97999501 100
-4.9131546 -0.59629726 -0.259377 48
-5.0220766 -0.60951686 1.1679459 74
-4.8992968 -0.59461534 -0.086145081 49
-5.0073204 -0.60772592 1.3515531 78
-1.747826 -0.20594092 -0.47156829 7
-4.9231877 -0.58008397 0.086529031 48
-2.0495379 -0.24149068 -0.47644633 3
-4.929091 -0.58077949 0.26010969 32
-2.4177105 -0.28487134 -0.47320631 1
-4.5173755 -0.53226835 0.39795312 3
-4.9045138 -0.57788366 -0.78217232 16
-4.9956656 -0.58862376 0.61763382 23
-3.9468517 -0.4650453 -0.48796484 3
-5.0006423 -0.58921021 0.79750288 55
-4.9111371 -0.578664 -0.43264112 50
-5.0011511 -0.58927011 0.97885013 100
-4.9112391 -0.5786761 -0.25916764 48
-5.0222383 -0.59175479 1.167496 70
-4.8894267 -0.57610595 -0.085935652 47
-5.0036554 -0.58956522 1.3500001 77
-1.7389374 -0.19874179 -0.4689801 6
-4.9172359 -0.56198704 0.086389415 45
-2.0542405 -0.23477754 -0.47734615 3
-4.9271197 -0.56311667 0.25990036 48
-2.4616024 -0.28133461 -0.48160189 1
-4.988348 -0.57011437 0.43926495 55
-4.908464 -0.56098449 -0.78248519 14
-4.9937453 -0.57073128 0.61714637 52
-3.9385898 -0.45013836 -0.48674616 2
-5.0183697 -0.57354552 0.80000585 72
-4.9170861 -0.56196994 -0.43298972 56
-4.9914742 -0.5704717 0.97656041 78
-4.905292 -0.56062198 -0.25874898 48
-5.0087843 -0.57245004 1.1638968 52
-4.9112754 -0.56130582 -0.086284697 49
-5.0133605 -0.57297307 1.3520707 74
-1.7415407 -0.19288322 -0.46949774 7
-4.9171801 -0.54459912 0.086354509 50
-2.0318048 -0.22503124 -0.47194731 3
-4.9171443 -0.54459518 0.25927234 50
-2.4391537 -0.27014691 -0.4770225 1
-5.0239725 -0.55642688 0.44222823 72
-4.9084287 -0.54362988 -0.78217232 13
-5.0114913 -0.55504453 0.61909628 72
-3.9243529 -0.43463919 -0.48479626 2
-5.0124874 -0.55515486 0.79875439 76
-4.9110966 -0.54392534 -0.43229249 56
-5.0109973 -0.55498981 0.97999501 83
-4.9131742 -0.54415548 -0.25906298 48
-4.9855723 -0.55217391 1.158048 13
-4.9072423 -0.54349846 -0.086179987 54
-5.0191703 -0.55589497 1.353106 70
-1.7325991 -0.18577315 -0.46690956 6
-4.9250159 -0.52807122 0.086459219 47
-2.06358 -0.22126167 -0.47914574 3
-4.9229875 -0.52785373 0.25948167 50
-2.4322734 -0.26079381 -0.47549602 1
-5.0001307 -0.53612518 0.43996218 59
-4.9122605 -0.5267036 -0.78248519 14
-5.0015554 -0.53627795 0.61763382 77
-3.9436102 -0.42284271 -0.48698989 2
-4.9888611 -0.53491688 0.79468709 54
-4.9090033 -0.52635431 -0.43194386 52
-5.0187602 -0.53812265 0.98113984 90
-4.9090862 -0.52636319 -0.25874898 52
-5.0204091 -0.5382995 1.1656964 28
-4.9031448 -0.52572614 -0.086075269 52
-5.0095549 -0.53713566 1.3500001 70
-1.7313468 -0.1792227 -0.46639192 5
-4.9010606 -0.50733989 0.086005457 50
-2.0798843 -0.21530202 -0.48274496 3
-4.9248891 -0.50980651 0.25948167 45
-2.4371185 -0.25228161 -0.47625926 1
-5.0000801 -0.51759005 0.43978786 64
-4.9062986 -0.50788212 -0.78123373 14
-5.0034876 -0.51794273 0.61763382 77
-3.9332862 -0.40715942 -0.48552746 2
-5.0124021 -0.51886553 0.79812866 99
-4.8990088 -0.50712746 -0.43089798 54
-4.9894538 -0.51648998 0.97503394 78
-4.9089956 -0.50816131 -0.25864428 46
-5.0049033 -0.51808929 1.1616472 59
-4.9070277 -0.50795758 -0.086110175 57
-4.9999604 -0.51757765 1.3468943 54
-1.7492622 -0.17490794 -0.47105065 6
-4.9067812 -0.49062681 0.086075269 48
-2.049598 -0.20493837 -0.47554654 3
-4.9326005 -0.49320847 0.2597957 47
-2.4457984 -0.24455427 -0.47778574 2
-5.0058217 -0.50052983 0.44013649 64
-4.9119725 -0.49114591 -0.78185946 14
-4.997364 -0.49968415 0.61665887 75
-3.9267826 -0.39263719 -0.4845525 2
-4.9925613 -0.49920392 0.79468709 77
-4.9007487 -0.49002364 -0.43089798 54
-4.9970865 -0.49965641 0.97617882 81
-5.026072 -0.50255466 1.1661463 94
-4.9167299 -0.49162158 -0.086249791 52
-5.0036588 -0.50031358 1.347412 59
-1.7575243 -0.16984953 -0.47312123 6
-4.9044003 -0.47396791 0.086005457 50
-2.0425074 -0.19739071 -0.47374693 3
-4.9183049 -0.4753117 0.25895831 53
-2.4231462 -0.23417614 -0.47320631 2
-4.9995213 -0.48316056 0.43943927 60
-4.9037433 -0.47390443 -0.78029513 13
-4.9910898 -0.48234573 0.61568391 77
-3.908304 -0.37770385 -0.48211512 2
-4.9961553 -0.48283526 0.79499996 67
-4.9023471 -0.47376949 -0.43089798 54
-4.9948077 -0.48270503 0.97541559 77
-4.902401 -0.4737747 -0.25812092 46
-4.9986153 -0.48307297 1.1593977 71
-4.9183331 -0.47531441 -0.086249791 54
-5.0129824 -0.48446143 1.3494825 66
-1.7465652 -0.16263889 -0.47001538 6
-4.9119983 -0.45740169 0.086110175 51
-2.0393033 -0.18989845 -0.4728471 3
-4.9020362 -0.45647407 0.25801626 47
-2.4669545 -0.22972101 -0.48160189 1
-5.0130801 -0.4668144 0.44048512 64
-4.8975 -0.45605168 -0.77904361 13
-4.99472 -0.4651047 0.61592764 86
-3.9293642 -0.36589953 -0.4845525 2
-5.0056777 -0.4661251 0.79625142 81
-4.9079385 -0.45702368 -0.43124661 52
-5.0003719 -0.46563101 0.97617882 68
-4.9139681 -0.45758516 -0.25864428 54
-4.9925094 -0.46489888 1.1575981 64
-4.9000516 -0.45628926 -0.085900746 59
-5.0146427 -0.46695989 1.3494825 59
-1.7433013 -0.15589218 -0.4689801 6
-4.9216084 -0.4401077 0.086249791 53
-2.0516317 -0.18346418 -0.47554654 3
-4.9136229 -0.43939361 0.25853962 56
-2.4286706 -0.21718036 -0.47396955 1
-5.0048351 -0.44755012 0.43961358 59
-4.9129114 -0.43932998 -0.78123373 11
-4.9944139 -0.4466182 0.61568391 62
-3.932656 -0.35167205 -0.48479626 2
-4.9837422 -0.44566393 0.79249698 74
-4.9056115 -0.43867719 -0.43089798 52
-5.0098667 -0.44800004 0.9777053 77
-4.9136229 -0.43939361 -0.25853962 48
-5.0000029 -0.44711801 1.1589478 64
-4.9156332 -0.43957338 -0.086145081 11
-4.9874578 -0.4459962 1.341718 15
-1.7419101 -0.14964063 -0.46846247 7
-4.9051838 -0.42138499 0.085935652 50
-2.0483763 -0.17596795 -0.47464672 3
-4.9111471 -0.42189729 0.25833029 52
-2.4372382 -0.20937353 -0.47549602 1
-4.9984264 -0.42939514 0.43891633 59
-4.9183512 -0.4225162 -0.78185946 9
-4.99792 -0.42935163 0.61592764 67
-3.9140816 -0.33624333 -0.48235887 2
-4.9793634 -0.42775747 0.79155838 23
-4.8952026 -0.42052755 -0.42985213 52
-4.9111471 -0.42189729 -0.25833029 46
-4.8992066 -0.42087153 -0.085830934 49
-4.917768 -0.4224661 1.3225653 6
-1.7578244 -0.14482835 -0.47260359 7
-4.892674 -0.40311074 0.085691318 10
-2.0567467 -0.16945677 -0.47644633 3
-4.9066181 -0.40425962 0.25801626 30
-2.4653471 -0.20312162 -0.48083866 1
-4.9562106 -0.40834555 0.43508148 23
-4.9099526 -0.40453434 -0.78029513 8
-4.8371606 -0.39853695 0.59594107 65
-3.9310584 -0.32388258 -0.48430878 1
-4.8430166 -0.39901945 0.76965755 11
-4.9006119 -0.40376475 -0.43020076 54
-4.9796095 -0.41027343 0.97121781 23
-4.9046278 -0.40409562 -0.25791159 52
-4.995234 -0.41156071 1.1571482 26
-4.9126034 -0.40475273 -0.086040363 57
-1.7486899 -0.13793197 -0.47001538 6
-4.8601618 -0.38335654 0.085097931 18
-2.0495548 -0.16166341 -0.47464672 3
-4.8860974 -0.38540229 0.25686488 58
-2.4386406 -0.19235344 -0.47549602 1
-4.8861017 -0.38540262 0.42880625 51
-4.9014888 -0.38661629 -0.77873075 6
-4.9552798 -0.39085922 0.6103217 30
-3.9400809 -0.31078303 -0.48528373 1
-4.8920603 -0.38587263 -0.42932919 48
-4.9947114 -0.39396948 0.97388911 49
-4.8980441 -0.38634461 -0.2574929 48
-5.016067 -0.39565396 1.1616472 46
-4.911993 -0.38744485 -0.086005457 52
-5.0053358 -0.39480749 1.3453414 25
-1.7529904 -0.1324234 -0.47105065 6
-4.2113576 -0.31813195 0.073718965 15
-2.0384204 -0.15398519 -0.47194731 3
-4.2002521 -0.31729302 0.22075306 22
-2.4470956 -0.1848571 -0.4770225 1
-4.2078915 -0.31787014 0.36919174 61
-3.0294976 -0.22885258 -0.48119241 1
-4.1905007 -0.31655642 0.51599479 52
-3.9648433 -0.29950991 -0.48820859 1
-4.9953227 -0.37735379 0.79343563 39
-4.197958 -0.31711975 -0.36832017 14
-5.0018635 -0.37784791 0.97503394 48
-4.2022438 -0.31744349 -0.22085774 47
-4.9920897 -0.37710959 1.1557986 63
-4.2053757 -0.31768006 -0.073614247 75
-5.0104704 -0.37849808 1.3463767 43
-1.7418808 -0.12547074 -0.46794483 6
-2.0622702 -0.14854895 -0.47734615 3
-4.1933656 -0.30205551 0.22033438 24
-2.4398932 -0.17574981 -0.47549602 1
-4.1851287 -0.30146217 0.3671 77
-3.0342185 -0.21856011 -0.48181814 1
-4.1955404 -0.30221215 0.51648229 76
-3.9737844 -0.2862387 -0.48918355 1
-4.9985795 -0.36005649 0.7937485 68
-4.1811543 -0.30117589 -0.36675137 69
-5.0031519 -0.36038584 0.97503394 55
-4.1873894 -0.30162501 -0.22002035 94
-4.9797702 -0.35870159 1.1526492 48
-4.1785355 -0.30098727 -0.073125586 100
-5.0040536 -0.36045077 1.3443061 51
-1.7384535 -0.11912554 -0.46690956 6
-4.1855459 -0.28680974 0.073230296 68
-2.0627761 -0.14134938 -0.47734615 3
-4.1963868 -0.28755262 0.22043905 82
-4.1758657 -0.28614643 -0.81360954 1
-4.2139835 -0.28875843 0.36954036 62
-3.0546706 -0.20931782 -0.48494685 1
-4.2143936 -0.2887865 0.51867592 79
-3.9589157 -0.27128017 -0.48723364 1
-4.9958644 -0.34233591 0.79312271 64
-4.1841679 -0.28671533 -0.36692569 97
-4.9945865 -0.34224832 0.97312587 53
-4.212328 -0.28864494 -0.22127642 74
-5.0120988 -0.34344834 1.1598476 50
-4.1935258 -0.28735656 -0.07336992 100
-4.9879355 -0.34179255 1.3396474 48
-1.7407866 -0.11318181 -0.46742719 7
-2.0438106 -0.13288373 -0.4728471 3
-4.2093234 -0.27368024 0.22106709 90
-2.4488974 -0.1592215 -0.4770225 1
-4.2070131 -0.27353004 0.36884311 18
-3.039613 -0.19762844 -0.4824439 1
-4.1955671 -0.27278584 0.51623851 58
-3.9855905 -0.25913367 -0.49040225 3
-5.0009713 -0.32515132 0.7937485 64
-4.1791787 -0.27172029 -0.36640275 99
-4.9644046 -0.32277384 0.96701998 11
-4.2073307 -0.27355066 -0.22096241 81
-4.9957652 -0.32481283 1.1557986 52
-4.1925077 -0.27258694 -0.073335014 100
-5.0006647 -0.32513139 1.3427532 43
-1.7507932 -0.10800327 -0.47001538 6
-4.1814132 -0.25794384 0.073125586 103
-2.0675805 -0.12754531 -0.47824594 3
-4.1882796 -0.25836742 0.21991569 89
-4.2169075 -0.26013342 -0.82124192 1
-4.1840339 -0.25810549 0.36675137 83
-3.0323651 -0.18706113 -0.48119241 1
-4.1805978 -0.25789353 0.5142886 50
-4.0300169 -0.24860448 -0.49576449 3
-4.9941359 -0.30807921 0.79249698 57
-4.1880112 -0.25835085 -0.3671 95
-4.1763191 -0.25762957 -0.21928766 94
-5.0026503 -0.30860445 1.1571482 46
-4.1933889 -0.25868258 -0.073335014 100
-4.997859 -0.3083089 1.341718 48
-1.7627311 -0.10256449 -0.47312123 7
-4.1842847 -0.24346256 0.073160484 90
-2.0485587 -0.11919536 -0.47374693 3
-4.1811805 -0.24328196 0.219497 89
-4.2021103 -0.24449976 -0.81818897 1
-4.1948543 -0.24407758 0.36762291 100
-3.0408878 -0.17693403 -0.4824439 1
-4.1775093 -0.24306834 0.51380116 74
-3.9971707 -0.23257534 -0.49162093 1
-4.9971528 -0.2907593 0.79280984 21
-4.1809311 -0.24326745 -0.36640275 99
-4.1851683 -0.24351399 -0.21970634 97
-4.9920239 -0.29046088 1.1544489 42
-4.1862807 -0.24357872 -0.07319539 100
-5.0027618 -0.29108566 1.3427532 47
-1.7515045 -0.095777899 -0.47001538 6
-4.2430134 -0.23202161 0.074172728 100
-2.0372872 -0.11140541 -0.47104752 3
-4.293684 -0.23479244 0.22535862 100
-2.4660897 -0.13485371 -0.48007542 1
-4.211596 -0.23030362 0.36901742 61
-3.033597 -0.16588683 -0.48119241 1
-4.1941891 -0.22935174 0.51575106 72
-3.9464228 -0.21580309 -0.48528373 1
-4.1757865 -0.22834544 -0.3658798 100
-4.2498097 -0.23239326 -0.22305584 58
-4.9968991 -0.2732465 1.1553487 46
-4.5844512 -0.25069255 -0.080141447 100
-4.9998894 -0.27341002 1.341718 43
-1.7325349 -0.088675939 -0.46483901 6
-4.6152549 -0.23622152 0.080665022 85
-2.0532331 -0.10509016 -0.47464672 3
-4.6156158 -0.23624 0.24221081 79
-2.4469385 -0.12524109 -0.47625926 1
-4.2302823 -0.21651758 0.37058622 63
-3.022321 -0.15469076 -0.47931519 1
-4.1929817 -0.21460842 0.51550734 77
-3.9392221 -0.2016203 -0.48430878 1
-4.5354543 -0.23213711 0.71928567 1
-4.1785479 -0.21386968 -0.36605412 100
-4.5458031 -0.23266679 -0.2385473 19
-5.0017152 -0.25600162 1.1562485 39
-4.6052694 -0.23571044 -0.0804905 100
-4.9834495 -0.25506675 1.3370591 43
-1.7444118 -0.083179802 -0.46794483 5
-4.6100588 -0.21982411 0.080560312 78
-2.0535874 -0.0979224 -0.47464672 3
-4.6184072 -0.22022219 0.24231547 76
-2.4434388 -0.1165119 -0.47549602 1
-4.2190719 -0.20118044 0.36954036 62
-3.0425739 -0.1450808 -0.4824439 1
-4.1937051 -0.19997087 0.51550734 75
-3.9438674 -0.18805772 -0.48479626 1
-4.1752892 -0.19909272 -0.36570549 99
-4.5066876 -0.214895 -0.23645385 10
-5.0142574 -0.23909773 1.1589478 46
-4.6180487 -0.22020508 -0.080699928 100
-4.993958 -0.23812978 1.3396474 46
-1.7582014 -0.0776871 -0.47156829 7
-4.6068025 -0.20355412 0.0804905 82
-2.038342 -0.090065271 -0.47104752 3
-4.6171527 -0.20401143 0.24221081 81
-2.4516759 -0.10832865 -0.4770225 1
-4.235672 -0.1871555 0.37093484 67
-4.602088 -0.20334581 -0.72961032 4
-4.1765294 -0.18454225 0.51331365 69
-3.9405336 -0.17411466 -0.48430878 1
-4.177949 -0.18460497 -0.3658798 100
-4.3916821 -0.1940489 -0.23038287 3
-5.0111675 -0.22142121 1.158048 61
-4.6187892 -0.20408374 -0.080699928 100
-5.0063386 -0.22120783 1.3427532 43
-1.7488105 -0.071156658 -0.4689801 6
-4.6174755 -0.18787862 0.080665022 85
-2.0464325 -0.083266482 -0.4728471 3
-4.6098542 -0.18756853 0.24179211 81
-2.4402692 -0.099291146 -0.47473279 1
-4.2343087 -0.1722881 0.37076053 71
-4.6205335 -0.18800306 -0.73242617 19
-4.1890488 -0.17044654 0.51477611 69
-3.9490511 -0.16068138 -0.48528373 1
-4.4271069 -0.18013279 0.701765 1
-4.1865306 -0.17034408 -0.36657706 100
-4.3604031 -0.17741871 -0.22870813 12
-4.9729676 -0.20234311 1.14905 41
-4.6094832 -0.18755344 -0.080525406 100
-5.0012894 -0.20349547 1.3412002 43
-1.7509788 -0.065123536 -0.46949774 5
-4.6240978 -0.17198245 0.08076974 91
-2.0506055 -0.076267451 -0.47374693 3
-4.6084847 -0.17140175 0.24168745 87
-2.4288297 -0.090334602 -0.47244307 1
-4.2368751 -0.15758061 0.37093484 80
-4.6330056 -0.17231375 -0.73430336 25
-4.1856508 -0.15567544 0.5142886 67
-3.9535553 -0.1470432 -0.48577121 1
-4.177145 -0.15535907 -0.36570549 97
-4.3370452 -0.1613062 -0.22745207 7
-5.0009069 -0.18599698 1.1553487 50
-4.6001182 -0.17109057 -0.080350876 100
-4.9923167 -0.18567748 1.3386121 46
-1.7260957 -0.058165282 -0.46276847 7
-4.6106801 -0.15536886 0.080525406 85
-2.0664403 -0.06963408 -0.47734615 3
-4.6130471 -0.15544863 0.24189679 87
-2.4487514 -0.08251705 -0.47625926 1
-4.2234607 -0.14232048 0.36971465 95
-4.6158109 -0.15554175 -0.73148757 25
-4.1980724 -0.14146496 0.51575106 69
-3.9738843 -0.13391037 -0.48820859 1
-4.1657143 -0.14037457 -0.36465964 95
-4.3236089 -0.14569525 -0.22671936 3
-4.9839969 -0.16794874 1.1512995 37
-4.6106801 -0.15536886 -0.080525406 100
-4.9890728 -0.16811979 1.3375769 47
-1.7417359 -0.052606303 -0.46690956 6
-4.6031995 -0.13903216 0.080385782 98
-2.0588794 -0.062185109 -0.47554654 3
-4.6175547 -0.13946573 0.24210614 84
-2.4607987 -0.074324429 -0.47854897 1
-4.2239318 -0.12757699 0.36971465 95
-4.6123767 -0.13930935 -0.73086184 21
-4.1906037 -0.12657039 0.51477611 59
-3.9703591 -0.11991825 -0.48772112 1
-4.176136 -0.12613341 -0.36553118 100
-4.4059415 -0.13307431 -0.23101091 10
-5.0079269 -0.15125631 1.1566983 45
-4.6151919 -0.13939437 -0.08059521 100
-4.9934912 -0.15082029 1.3386121 47
-1.7496336 -0.046732515 -0.4689801 6
-4.6096535 -0.12312333 0.0804905 91
-2.0512917 -0.05478977 -0.47374693 3
-4.6080303 -0.12307997 0.24158278 91
-2.4374926 -0.065105148 -0.47396955 1
-4.2263432 -0.11288514 0.36988896 80
-4.6148095 -0.12326103 -0.73117471 25
-4.1989579 -0.11215369 0.51575106 82
-3.9588473 -0.10574036 -0.48625869 1
-4.3383555 -0.11587698 0.68737304 1
-4.1825261 -0.1117148 -0.36605412 99
-4.9986844 -0.1335143 1.1544489 46
-4.6196485 -0.12339029 -0.080665022 100
-4.9978495 -0.13349199 1.3396474 46
-1.738198 -0.040355831 -0.46587428 7
-4.6120543 -0.10707829 0.080525406 98
-2.0514705 -0.047629092 -0.47374693 3
-4.6104288 -0.10704055 0.24168745 87
-2.4259286 -0.056322906 -0.47167984 1
-4.2147603 -0.097854294 0.36884311 58
-4.6171865 -0.10719745 -0.73148757 25
-4.1913853 -0.097311601 0.51477611 63
-3.9512539 -0.091736458 -0.48528373 1
-4.1769152 -0.096975639 -0.36553118 100
-4.5485306 -0.10560346 -0.23844261 33
-4.9893789 -0.11583865 1.1521993 44
-4.6140537 -0.10712471 -0.080560312 100
-4.9944224 -0.11595576 1.3386121 47
-1.7344654 -0.034211945 -0.46483901 6
-4.6163988 -0.091057442 0.08059521 98
-2.055521 -0.040544696 -0.47464672 3
-4.602787 -0.090788946 0.24126875 87
-4.6009731 -0.090753175 -0.89451259 1
-4.2091002 -0.083023563 0.36832017 61
-4.6274076 -0.091274582 -0.7330519 24
-4.235363 -0.083541594 0.52013838 96
-3.9594889 -0.078100041 -0.48625869 1
-4.177228 -0.082394898 -0.36553118 100
-4.5009465 -0.088780172 -0.23593049 45
-4.9878044 -0.098383337 1.1517494 42
-4.604403 -0.090820827 -0.080385782 100
-4.9986596 -0.098597452 1.3396474 46
-1.7403691 -0.028251389 -0.46639192 7
-4.6086907 -0.074812822 0.080455594 95
-2.051753 -0.033306081 -0.47374693 3
-4.6110635 -0.074851342 0.24168745 94
-2.4380407 -0.039576683 -0.47396955 1
-4.1954193 -0.068104193 0.3671 57
-4.6039963 -0.074736618 -0.72929746 15
-4.1959324 -0.068112515 0.51526356 63
-3.9438589 -0.064020611 -0.48430878 1
-4.1695218 -0.067683794 -0.36483395 100
-5.0056539 -0.081256717 1.1557986 44
-4.604692 -0.074747905 -0.080385782 100
-4.9873838 -0.08096014 1.3365415 48
-1.7462522 -0.022250034 -0.46794483 5
-4.6009254 -0.05862312 0.080315977 92
-2.0479596 -0.026094269 -0.4728471 3
-4.6112967 -0.058755267 0.24168745 97
-2.4342377 -0.031016069 -0.47320631 1
-4.2016082 -0.053535182 0.36762291 32
-4.6022539 -0.058640048 -0.72898459 19
-4.2477527 -0.054123137 0.52160078 96
-3.9956665 -0.050911155 -0.49064597 1
-4.1697326 -0.053129036 -0.36483395 100
-4.3716455 -0.055701725 -0.22912681 100
-4.9981127 -0.06368392 1.1539989 31
-4.6029253 -0.058648597 -0.080350876 100
-4.9663873 -0.063279688 1.3308475 23
-1.7521145 -0.01620795 -0.46949774 7
-4.6031017 -0.042581033 0.080350876 87
-2.0402436 -0.018873291 -0.47104752 3
-4.613471 -0.042676955 0.24179211 91
-2.453963 -0.022700407 -0.4770225 1
-4.2077465 -0.038923796 0.36814585 31
-4.6241589 -0.042775825 -0.73242617 31
-4.1963058 -0.038817961 0.51526356 59
-3.9402397 -0.03644922 -0.4838213 1
-4.1738772 -0.038610488 -0.36518255 100
-4.3398581 -0.040145896 -0.22745207 56
-4.6150994 -0.042692021 -0.080560312 100
-1.7502249 -0.010691648 -0.4689801 6
-4.615211 -0.02819307 0.080560312 28
-2.0402927 -0.012463595 -0.47104752 3
-4.6035962 -0.02812212 0.24126875 84
-2.3911991 -0.014607186 -0.4648107 1
-4.2158175 -0.025753282 0.36884311 32
-4.6163692 -0.028200146 -0.73117471 36
-4.242063 -0.025913611 0.52086955 90
-3.9204841 -0.023949172 -0.48138392 1
-4.1779628 -0.025522038 -0.36553118 100
-4.2484031 -0.025952341 0.82582134 1
-4.3759131 -0.026731264 -0.22933616 73
-4.9243746 -0.030081665 1.1369026 1
-4.6092119 -0.028156424 -0.080455594 100
-4.9415841 -0.030186797 1.3241183 2
-1.7347969 -0.0045416979 -0.46483901 7
-4.6032829 -0.012051394 0.080350876 91
-2.040324 -0.0053415676 -0.47104752 3
-2.4540596 -0.0064247274 -0.4770225 1
-4.2059197 -0.011011097 0.36797154 31
-4.6203904 -0.012096181 -0.73180044 33
-4.2361727 -0.011090299 0.52013838 55
-3.9562755 -0.010357528 -0.48577121 1
-4.1700568 -0.010917208 -0.36483395 100
-4.1601219 -0.010891198 0.80864853 2
-4.5117927 -0.011811873 -0.23645385 22
-4.8971672 -0.012820783 1.130604 1
-4.6012836 -0.012046159 -0.080315977 100
-4.9281368 -0.012901861 1.3204948 2
-1.7270744 0.0018085887 -0.46276847 7
-4.6072955 0.0048247506 0.080420688 100
-2.0598171 0.0021570362 -0.47554654 3
-4.5457592 0.0047603096 0.23823327 37
-2.4305077 0.0025452224 -0.47244307 1
-4.1999545 0.0043981839 0.3674486 31
-4.6085515 0.0048260652 -0.72992319 36
-4.2977223 0.0045005661 0.52769428 104
-3.9364359 0.0041222274 -0.48333383 1
-4.1660838 0.0043627145 -0.36448532 100
-4.9159861 0.0051480108 0.95557147 1
-4.5098085 0.0047226623 -0.23634918 22
-4.9595408 0.0051936209 1.1450008 1
-4.5972972 0.0048142802 -0.080246165 100
-4.9957657 0.0052315556 1.3386121 1
-1.7386485 0.0078897914 -0.46587428 6
-4.5992522 0.020870887 0.080281071 100
-4.6126204 0.020931551 -1.0649183 4
-4.6076293 0.020908901 0.2414781 100
-2.422631 0.010993626 -0.4709166 1
-4.2038984 0.019076817 0.36779723 31
-4.6065311 0.020903919 -0.72961032 37
-4.248054 0.019277189 0.52160078 54
-3.9244871 0.017808879 -0.4818714 1
-4.1739278 0.018940814 0.66109204 1
-4.1740127 0.018941199 -0.36518255 100
-5.0337324 0.02284251 0.97846854 1
-4.4638281 0.020256348 -0.23394172 28
-5.0101595 0.022735538 1.1566983 1
-4.6072507 0.020907184 -0.080420688 100
-1.7579308 0.01380704 -0.47105065 6
-4.5951581 0.03609103 0.080211259 100
-4.6203203 0.036288656 -1.0667179 4
-4.599546 0.036125492 0.24105941 100
-2.4343603 0.019119814 -0.47320631 1
-4.2117815 0.033079933 0.36849448 31
-4.6044612 0.036164097 -0.72929746 36
-4.3174424 0.033909813 0.53013164 118
-3.9164662 0.030760488 -0.48089644 1
-4.1679502 0.032735676 -0.36465964 100
-5.0022178 0.039288133 0.97236264 1
-5.0100565 0.039349701 1.1566983 1
-4.597158 0.036106735 -0.080246165 29
-1.7462815 0.019811785 -0.46794483 7
-4.6050019 0.052244332 0.080385782 97
-4.6240625 0.052460577 -1.0676177 4
-4.6013889 0.052203339 0.24116409 100
-2.406795 0.027305394 -0.46786365 1
-4.2076554 0.047736388 0.36814585 31
-4.6102324 0.052303672 -0.73023605 31
-4.2954631 0.048732575 0.5274505 56
-3.9044254 0.044296201 -0.47943398 1
-4.1777716 0.047397349 -0.36553118 100
-4.9353037 0.05599165 0.9593876 1
-4.357739 0.049439099 -0.22839411 115
-5.0098886 0.05683782 1.1566983 1
-1.7268853 0.02562074 -0.46276847 6
-4.6107903 0.068407468 0.0804905 100
-2.0479004 0.030383445 -0.4728471 3
-4.6011786 0.068264864 0.24116409 100
-2.3988328 0.035590012 -0.46633717 1
-4.2014871 0.062334884 0.36762291 32
-4.340919 0.064403556 0.5330565 119
-3.9479141 0.05857278 -0.48479626 1
-4.1735964 0.061921094 -0.36518255 100
-4.9547086 0.073509976 0.96320379 1
-4.3615336 0.064709403 -0.22860345 103
-5.0096598 0.074325249 1.1566983 1
-4.5927949 0.068140484 -0.080176353 100
-4.9952188 0.074111 1.3386121 1
-1.7306484 0.031719338 -0.46380374 6
-4.5945282 0.084208556 0.080211259 100
-2.0555756 0.03767461 -0.47464672 3
-4.6069031 0.084435359 0.2414781 97
-2.4458041 0.04482672 -0.47549602 1
-4.1932755 0.076854393 0.36692569 32
-2.9941683 0.054877143 -0.4743093 1
-4.3347135 0.079446673 0.53232527 57
-3.9357769 0.072134957 -0.48333383 1
-4.1633945 0.076306731 -0.36431101 100
-4.9642367 0.090984575 0.96511191 2
-4.3692689 0.080080003 -0.22902215 100
-5.0093694 0.091811769 1.1566983 1
-4.5965276 0.084245205 -0.080246165 100
-1.7382528 0.037928808 -0.46587428 7
-4.5942063 0.10024594 0.080211259 100
-2.0320523 0.044339538 -0.46924791 3
-4.6145673 0.10069022 0.24189679 87
-2.4260049 0.052935615 -0.47167984 1
-4.2049332 0.09175197 0.36797154 32
-2.9781592 0.064983666 -0.47180635 1
-4.3602099 0.095140122 0.53549391 118
-3.9196243 0.085526504 -0.48138392 1
-4.1650949 0.090882689 -0.36448532 100
-4.9403353 0.1077985 0.96053249 6
-4.3969178 0.095941089 -0.23048756 100
-5.0090184 0.10929717 1.1566983 1
-4.5962057 0.10028956 -0.080246165 100
-4.9636774 0.10830782 1.3303299 1
-1.7419722 0.044093981 -0.46690956 6
-4.5898304 0.1161809 0.080141447 100
-2.0318851 0.051432453 -0.46924791 3
-4.5882316 0.11614043 0.24053605 69
-2.4375811 0.061701708 -0.47396955 1
-4.19662 0.1062277 0.36727431 46
-2.9937122 0.075778872 -0.4743093 1
-4.2784886 0.1083 0.5255006 52
-3.9312086 0.099509418 -0.48284635 1
-4.1687355 0.10552187 -0.36483395 100
-4.9477792 0.12524155 0.96205896 11
-4.5463028 0.1150791 -0.23833795 80
-4.9618516 0.12559776 1.1459007 1
-4.5958276 0.1163327 -0.080246165 100
-4.9864435 0.12622024 1.3365415 1
-1.7456698 0.050285581 -0.46794483 6
-4.4394817 0.12788326 0.077523589 68
-2.0316932 0.058524743 -0.46924791 3
-2.4216514 0.069757842 -0.4709166 1
-4.1763082 0.1203023 0.36553118 100
-3.0526662 0.087934785 -0.48369536 1
-4.1550598 0.11969022 0.51038879 85
-3.9030576 0.11243107 -0.47943398 1
-4.1723251 0.12018757 -0.36518255 100
-4.9630117 0.14296399 0.96511191 26
-4.2144656 0.12140146 -0.22096241 100
-4.9613833 0.14291708 1.1459007 1
-4.1736326 0.12022523 -0.072881252 100
-4.9666624 0.14306916 1.3313651 4
-1.741622 0.05625407 -0.46690956 6
-4.1731877 0.13479319 0.072881252 100
-2.0548491 0.066371255 -0.47464672 3
-4.1641107 0.13450001 0.21834561 100
-2.4056952 0.077703513 -0.46786365 1
-4.1798453 0.13500825 0.3658798 100
-3.0246997 0.097697243 -0.47931519 1
-4.1744571 0.1348342 0.5128262 91
-3.9145458 0.12643911 -0.48089644 1
-4.1599321 0.13436504 -0.3641367 100
-4.9722934 0.16060416 0.96701998 28
-4.1780844 0.13495135 -0.21907832 100
-4.1651931 0.13453497 -0.072741628 100
-1.7317619 0.061987594 -0.46432137 7
-4.1726918 0.14935952 0.072881252 104
-4.2026896 0.15043329 -0.97088873 3
-4.179584 0.14960621 0.21918298 100
-2.4289534 0.086943232 -0.47244307 1
-4.1693931 0.14924145 0.36500826 100
-2.9769616 0.10655893 -0.47180635 1
-4.2057023 0.15054111 0.51672602 84
-3.941854 0.14109679 -0.48430878 1
-5.0201678 0.17969452 0.79562569 1
-4.1634197 0.14902763 -0.36448532 100
-4.1735959 0.14939187 -0.21886897 100
-4.9758444 0.17810799 1.1494999 100
-4.1726918 0.14935952 -0.072881252 100
-4.967473 0.17780834 1.3318828 24
-1.7334771 0.067805491 -0.46483901 6
-4.2241259 0.16522798 0.073788777 100
-4.2041149 0.16444525 -0.97133863 3
-4.2349453 0.16565117 0.2221138 92
-2.4208047 0.094690517 -0.4709166 1
-4.1907749 0.16392344 0.36692569 82
-2.9923828 0.11704797 -0.4743093 1
-4.2051802 0.1644869 0.51672602 58
-3.9294629 0.15370214 -0.48284635 1
-4.9623022 0.19410197 0.78655249 14
-4.160912 0.16275534 -0.36431101 100
-4.1670904 0.16299701 -0.21855496 81
-4.9479647 0.19354115 1.1432012 45
-4.1961513 0.16413374 -0.073300108 100
-4.9359703 0.19307198 1.3236006 72
-1.7506008 0.074596249 -0.46949774 7
-4.1895595 0.17852464 0.07319539 111
-2.038481 0.086863339 -0.47104752 1
-4.1904411 0.17856224 0.21981102 92
-2.4204595 0.10314012 -0.4709166 1
-4.1822147 0.17821169 0.36622843 95
-2.9761672 0.12681983 -0.47180635 1
-4.1708641 0.17772801 0.51258248 78
-3.9249358 0.16724858 -0.48235887 1
-4.1623092 0.17736347 -0.36448532 100
-4.1804643 0.17813709 -0.21928766 100
-4.9647818 0.21155828 1.1472504 68
-4.1915574 0.17860979 -0.073230296 100
-4.9468465 0.21079403 1.3267064 14
-1.7445544 0.0801351 -0.46794483 6
-4.1649733 0.19131565 0.072776534 111
-2.030395 0.093265027 -0.46924791 1
-4.1658845 0.19135751 0.21855496 100
-4.1812496 0.19206329 -0.81360954 1
-4.1796107 0.19198801 0.36605412 98
-2.9915166 0.13741361 -0.4743093 1
-4.166286 0.19137594 0.51209497 77
-3.9124618 0.17971668 -0.48089644 1
-4.9509997 0.22742133 0.78498816 33
-4.1696591 0.1915309 -0.36518255 100
-4.1598988 0.19108257 -0.21824093 100
-4.1589804 0.19104038 -0.072671823 100
-4.9731379 0.22843823 1.3339534 2
-1.744249 0.086528674 -0.46794483 6
-4.190208 0.20786779 0.073230296 100
-2.0533957 0.10186482 -0.47464672 1
-4.1791186 0.20731765 0.21928766 86
-2.4059544 0.11935455 -0.46824527 2
-4.1928086 0.20799679 0.36727431 33
-3.0028307 0.14896438 -0.47618651 1
-3.9316032 0.19503891 -0.48333383 1
-4.1748991 0.20710833 -0.36570549 97
-4.9550505 0.24581008 0.96434867 11
-4.187098 0.20771348 -0.21970634 74
-4.9529724 0.24570698 1.328777 3
-1.7208027 0.091086954 -0.46173316 6
-4.8704386 0.25780609 0.085132837 62
-2.0277483 0.10733446 -0.46879801 3
-4.8684936 0.25770316 0.25550413 48
-2.3957429 0.12681346 -0.46633717 1
-4.9163117 0.2602343 0.43072367 58
-2.9786489 0.15766831 -0.47243208 1
-4.0221214 0.21290228 -0.49454579 4
-4.8347378 0.25591636 -0.42357692 94
-4.9502869 0.26203272 0.96358544 5
-4.8724828 0.2579143 -0.25571349 50
-4.8624511 0.25738329 -0.084993221 65
-4.9482722 0.26192605 1.3277417 3
-1.7281723 0.097830139 -0.46380374 5
-4.8754506 0.27599448 0.085237555 71
-2.0292871 0.11487595 -0.46924791 3
-4.8934393 0.2770128 0.25686488 48
-2.4031024 0.13603728 -0.46786365 2
-4.9113464 0.27802652 0.43037507 58
-4.8694091 0.27565247 -0.77247339 14
-3.9023991 0.22091098 -0.47992146 1
-4.871562 0.27577436 -0.42688882 72
-4.9375329 0.27950889 0.96129572 1
-4.8774867 0.27610976 -0.25602749 58
-4.8734541 0.27588147 -0.085202649 81
-4.947279 0.28006062 1.3277417 2
-1.7297667 0.10367601 -0.46432137 5
-4.8605356 0.29132307 0.084993221 57
-2.0172234 0.12090513 -0.46654847 3
-4.8845191 0.29276055 0.25644618 53
-2.4261551 0.14541502 -0.47244307 1
-4.9183526 0.29478839 0.43107229 58
-4.8664966 0.29168034 -0.77216053 13
-3.9095712 0.23432566 -0.48089644 1
-4.8765874 0.29228514 -0.42741176 84
-4.9267802 0.29529351 0.9593876 1
-4.8705635 0.29192409 -0.25571349 56
-4.8844891 0.29275873 -0.085412078 80
-4.9694638 0.2978518 1.3339534 2
-1.7390149 0.11062846 -0.46690956 6
-4.8793917 0.3104054 0.085342266 61
-2.0284357 0.12904014 -0.46924791 3
-4.857501 0.30901283 0.25508544 43
-2.4020941 0.15281065 -0.46786365 1
-4.9132624 0.31256011 0.43072367 50
-4.8752518 0.31014201 -0.77372485 11
-4.9447947 0.31456605 0.60837173 8
-3.8769886 0.24663693 -0.4769966 1
-4.8814483 0.31053624 -0.42793471 82
-5.0001178 0.31808546 0.97388911 1
-4.8754401 0.31015402 -0.25602749 58
-4.8694134 0.30977064 -0.085167743 81
-4.954843 0.31520528 1.3303299 1
-1.7347834 0.11613656 -0.46587428 5
-4.8863168 0.32711864 0.08548189 61
-2.035774 0.13628663 -0.47104752 3
-4.8783708 0.32658669 0.25623685 53
-2.3937387 0.16025089 -0.46633717 1
-4.9181628 0.3292506 0.43124661 61
-4.8702545 0.32604334 -0.77309912 9
-4.9556084 0.33175743 0.60983419 3
-3.8999174 0.2610833 -0.47992146 1
-4.8664761 0.32579041 -0.42671451 98
-5.022542 0.33623835 0.97846854 1
-4.8743849 0.32631987 -0.25602749 54
-4.8683596 0.3259165 -0.085167743 72
-4.9614806 0.33215055 1.3324004 1
-1.728565 0.12208577 -0.46432137 6
-4.8771062 0.34446216 0.085342266 57
-2.0469244 0.14457098 -0.47374693 3
-4.8671794 0.34376106 0.25571349 42
-2.3892186 0.16874667 -0.46557394 1
-4.8890986 0.34530917 0.42880625 46
-4.8650856 0.34361318 -0.77247339 11
-4.9781213 0.35159668 0.61275905 1
-3.8553708 0.27229863 -0.47455922 1
-4.8731995 0.34418622 -0.42741176 94
-4.8851099 0.34502748 -0.25665554 54
-4.8731165 0.34418038 -0.085272461 67
-4.9602299 0.35033306 1.3324004 1
-1.7300771 0.12795971 -0.46483901 5
-4.859983 0.35945335 0.085063025 53
-2.0153387 0.14905818 -0.46654847 3
-4.8879228 0.36151981 0.25686488 48
-2.4160566 0.17869602 -0.4709166 1
-4.9018354 0.36254883 0.43002644 45
-4.8698297 0.3601816 -0.77341199 13
-4.9373341 0.36517438 0.60788429 1
-3.8742433 0.2865462 -0.4769966 1
-4.8680573 0.36005053 -0.42706314 100
-4.8560534 0.35916272 -0.25519013 26
-4.875937 0.36063331 -0.085342266 68
-4.9513345 0.36620986 1.3303299 1
-1.7257445 0.13400079 -0.46380374 5
-4.8666077 0.37788287 0.085202649 56
-1.9992357 0.15523687 -0.46294928 3
-4.8825822 0.37912327 0.25665554 48
-2.3997264 0.18633422 -0.46786365 1
-4.8984876 0.38035828 0.42985213 37
-4.878324 0.37879261 -0.77497631 14
-4.9874201 0.38726375 0.61422151 1
-3.873167 0.30074409 -0.4769966 1
-4.8746505 0.37850741 -0.42776039 90
-4.8646607 0.37773171 -0.25571349 41
-4.890532 0.37974057 -0.085621506 68
-4.9807758 0.38674784 1.3386121 1
-1.7310672 0.14019065 -0.46535665 6
-4.8693142 0.39434189 0.085272461 53
-2.0220184 0.16375338 -0.46834809 3
-4.8693538 0.3943451 0.25602749 47
-2.3873544 0.19334012 -0.46557394 1
-4.9031568 0.39708266 0.43037507 41
-4.8573518 0.3933731 -0.77184767 14
-5.061296 0.40988955 0.62348354 1
-3.8365333 0.31070206 -0.47260931 1
-4.8733683 0.39467025 -0.42776039 88
-4.8773165 0.39498997 -0.25644618 56
-4.8693142 0.39434189 -0.085272461 60
-4.9679127 0.40232691 1.3355063 1
-1.722842 0.1458824 -0.4632861 7
-4.8718209 0.4125236 0.085342266 51
-2.0136375 0.17050566 -0.46654847 3
-4.8738461 0.41269508 0.25634152 50
-2.390542 0.2024202 -0.46633717 1
-4.9036536 0.41521904 0.43054938 38
-4.8696556 0.41234022 -0.77403772 13
-5.0597596 0.42843738 0.62348354 1
-3.9342697 0.33313602 -0.48479626 1
-4.8639479 0.41185695 -0.42706314 84
-4.8738461 0.41269508 -0.25634152 56
-4.867836 0.41218618 -0.085272461 65
-4.9625549 0.42020652 1.334471 1
-1.7223487 0.15159474 -0.4632861 6
-4.8744102 0.42902753 0.085412078 51
-2.0285909 0.17854907 -0.4701477 3
-4.8784194 0.42938042 0.25665554 48
-2.4055033 0.21172349 -0.46939012 1
-4.8843875 0.42990568 0.42898056 31
-4.8662934 0.42831314 -0.77372485 14
-3.9094138 0.34409213 -0.4818714 1
-4.8585863 0.42763475 -0.42671451 88
-4.8823986 0.42973062 -0.25686488 54
-4.8704262 0.42867687 -0.085342266 64
-4.961134 0.43666062 1.334471 1
-1.7314004 0.15878861 -0.46587428 7
-4.860857 0.44579449 0.085202649 56
-2.008517 0.18420328 -0.46564868 3
-4.8867574 0.44816986 0.2571789 50
-2.3812506 0.21838708 -0.4648107 1
-4.9065876 0.44998848 0.43107229 31
-4.8528886 0.44506368 -0.77184767 17
-3.9081264 0.35841852 -0.4818714 1
-4.8629384 0.44598538 -0.42723745 92
-4.8728352 0.44689301 -0.25644618 54
-4.8787789 0.44743815 -0.085516788 57
-4.9748902 0.4562526 1.3386121 1
-1.727018 0.16416365 -0.46483901 7
-4.8633337 0.46228969 0.085272461 53
-1.9962552 0.18975629 -0.46294928 3
-4.881268 0.46399444 0.25696954 50
-2.4156933 0.22962646 -0.47167984 1
-4.9149857 0.46719956 0.43194386 32
-4.8690844 0.46283635 -0.77466345 16
-3.8673928 0.3676194 -0.4769966 1
-4.8733335 0.46324024 -0.42828333 88
-4.8554201 0.46153745 -0.2556088 48
-4.8693056 0.46285737 -0.085377172 59
-4.97335 0.47274745 1.3386121 1
-1.7321721 0.17106196 -0.46639192 7
-4.8695664 0.48089769 0.085412078 53
-2.0071821 0.19822077 -0.46564868 3
-4.8656211 0.48050809 0.25623685 45
-2.379668 0.23500589 -0.4648107 1
-4.9072924 0.48462331 0.43142092 30
-4.8752184 0.48145586 -0.77591497 13
-3.8660192 0.38179162 -0.4769966 1
-4.8696198 0.48090297 -0.42810902 84
-4.8656211 0.48050809 -0.25623685 54
-4.8675766 0.48070118 -0.085377172 57
-5.017724 0.49552909 1.3510354 1
-1.7162205 0.17523526 -0.46225083 6
-4.8659558 0.49684 0.085377172 43
-2.0181456 0.20606342 -0.46834809 3
-4.8659883 0.49684328 0.25634152 50
-2.3593445 0.24090163 -0.46099454 1
-4.9016938 0.50048906 0.43107229 30
-4.8735952 0.49762002 -0.77591497 13
-4.8541241 0.4956319 -0.42688882 80
-4.8779097 0.49806055 -0.25696954 56
-4.8619771 0.49643373 -0.08530736 56
-4.9968348 0.51020342 1.3458591 1
-1.7117244 0.18111779 -0.46121553 7
-4.8760338 0.51593375 0.0855866 43
-2.0251286 0.21427912 -0.4701477 3
-4.8661203 0.51488483 0.25644618 45
-4.8926034 0.51768702 -0.95633471 1
-4.8879385 0.51719344 0.43002644 30
-4.8638811 0.5146479 -0.77466345 13
-3.8632598 0.40877202 -0.4769966 1
-4.8542562 0.5136295 -0.42706314 68
-4.8740654 0.51572549 -0.25686488 46
-4.8581362 0.51404005 -0.085272461 58
-4.9910889 0.52810776 1.3448237 1
-1.7187963 0.18763165 -0.4632861 6
-4.8544168 0.52993035 0.085237555 48
-2.0166578 0.22014759 -0.46834809 3
-4.88027 0.53275257 0.25728357 45
-2.4005418 0.26205412 -0.46939012 1
-4.8941193 0.53426445 0.43072367 28
-4.8464379 0.52905935 -0.77216053 14
-3.9329243 0.42933598 -0.48577121 1
-4.8604488 0.53058881 -0.42776039 68
-4.8643866 0.53101867 -0.25644618 52
-4.8583927 0.53036439 -0.08530736 56
-5.0622869 0.55262238 1.364494 1
-1.7219362 0.19436346 -0.46432137 6
-4.8584032 0.548392 0.085342266 47
-1.9809815 0.22360317 -0.46024987 3
-4.8723307 0.54996407 0.25696954 43
-4.8927717 0.55227137 -0.95709795 1
-4.8901482 0.55197519 0.43054938 28
-4.8621325 0.54881293 -0.77497631 11
-3.9313242 0.443748 -0.48577121 1
-4.8663907 0.54929358 -0.42845762 70
-4.8604226 0.54861993 -0.25634152 50
-4.872313 0.54996204 -0.0855866 57
-5.0602274 0.57117289 1.364494 1
-1.7193633 0.19984949 -0.46380374 7
-4.8605309 0.56496179 0.085412078 47
-1.9879719 0.2310711 -0.46204945 3
-4.8684964 0.56588763 0.25686488 47
-2.3791525 0.2765398 -0.46557394 1
-4.9080815 0.57048887 0.43229249 27
-4.8759832 0.56675792 -0.77747929 11
-3.8351839 0.44578102 -0.47407174 1
-4.864542 0.56542808 -0.42845762 68
-4.8645287 0.56542647 -0.25665554 54
-4.8664899 0.5656544 -0.085516788 54
-5.0583057 0.58795005 1.364494 1
-1.7129009 0.20516074 -0.46225083 6
-4.8625002 0.58240038 0.08548189 45
-2.0103722 0.24079002 -0.46744829 3
-4.8724403 0.58359098 0.2571789 43
-2.3781726 0.28484291 -0.46557394 1
-4.8882561 0.58548528 0.43072367 25
