# .PCD v0.7 - Point Cloud Data file format
VERSION 0.7
FIELDS x y z intensity
SIZE 4 4 4 4
TYPE F F F F
COUNT 1 1 1 1
WIDTH 1360
HEIGHT 1
VIEWPOINT 0 0 0 1 0 0 0
POINTS 1360
DATA ascii
0.42655885 3.2798393 -0.17333668 27
0.75171733 5.7800045 1.3456572 1
0.42759499 3.2878063 -0.05787218 20
0.74570101 5.7337441 1.5492908 1
0.20312229 1.5223306 -0.41152227 10
0.23247547 1.7423226 -0.4058117 4
0.38803676 2.9082003 0.15376304 44
0.27393386 2.0530386 -0.40260699 2
0.3976309 2.9801049 0.26303604 2
0.32448018 2.4318659 -0.38858321 2
0.39748728 2.9790287 0.36902037 2
0.40326318 3.0223172 -0.37438262 1
0.39763191 2.9801126 0.47618651 3
0.53834325 4.0346947 -0.35611835 1
0.76935166 5.7660222 1.1307341 1
0.41154614 3.0843947 -0.16307884 21
0.77036494 5.7736168 1.3447574 1
0.40464291 3.0326576 -0.053404365 32
0.77237564 5.7886863 1.5648199 1
0.2094837 1.5292683 -0.41359285 10
0.3994858 2.9163175 0.051379886 33
0.23908484 1.7453619 -0.40671152 4
0.39899909 2.9127643 0.15407705 26
0.28296372 2.0656855 -0.4052783 2
0.40992376 2.9925165 0.26425621 3
0.33350319 2.4346325 -0.38920894 2
0.40626717 2.9658227 0.36755794 4
0.41381058 3.020891 -0.37438262 1
0.40722775 2.9728351 0.47524792 4
0.55242366 4.0327911 -0.35611835 1
0.79427016 5.7983131 1.1376033 1
0.41146779 3.0037882 -0.15889196 40
0.79262972 5.7863383 1.3483566 2
0.40871304 2.9836781 -0.052566648 31
0.79336381 5.791697 1.5663729 6
0.21482056 1.5285277 -0.41359285 10
0.41495097 2.9525297 0.052043077 54
0.24463341 1.7406572 -0.4058117 3
0.41611323 2.9607995 0.15669385 43
0.28580087 2.0335789 -0.39917243 2
0.42119896 2.9969864 0.26477915 5
0.34144977 2.4295413 -0.38858321 2
0.41938007 2.9840443 0.36999533 5
0.42435294 3.019428 -0.37438262 1
0.41760242 2.9713955 0.47524792 3
0.56649739 4.030838 -0.35611835 1
0.81778395 5.8188353 1.1421826 1
0.4155573 2.9568436 -0.15648451 49
0.81553513 5.802834 1.3528557 1
0.41689911 2.9663913 -0.052287411 42
0.8202973 5.8367186 1.5793138 1
0.21960373 1.5239444 -0.41255757 8
0.42839205 2.9728351 0.052427027 54
0.25293154 1.7552232 -0.40941092 4
0.42701554 2.9632826 0.15690319 49
0.29317766 2.034512 -0.39955404 3
0.42966864 2.9816937 0.26355895 3
0.35218233 2.4439762 -0.39108616 2
0.42866123 2.9747028 0.36902037 5
0.43489012 3.0179284 -0.37438262 1
0.42853546 2.9738302 0.47587365 4
0.58056414 4.0288363 -0.35611835 1
0.84369087 5.8548088 1.149815 1
0.42929447 2.9790971 -0.15774058 50
1.1915576 8.268837 1.9287304 9
0.42696598 2.9629388 -0.052252505 46
0.83846194 5.8185229 1.5751727 1
0.22435755 1.5193462 -0.41152227 8
0.43818232 2.967365 0.052357219 54
0.25848749 1.7504739 -0.4085111 4
0.438232 2.9677014 0.15721722 57
0.30257204 2.0490139 -0.40260699 2
0.43890986 2.9722917 0.26286173 3
0.36013412 2.4388235 -0.39046043 2
0.44020224 2.9810436 0.36999533 4
0.44658199 3.0242472 -0.37535757 1
0.43775919 2.9644995 0.47462216 3
0.59462386 4.0267849 -0.35611835 1
0.87157959 5.9023252 1.1597371 1
0.44056612 2.9835081 -0.15805459 52
1.2215527 8.2723389 1.93053 1
0.43701386 2.9594519 -0.052217599 43
0.86497593 5.8576055 1.5865607 1
0.23110408 1.5281045 -0.41411048 8
0.44734159 2.9579086 0.052217599 46
0.26226497 1.7341464 -0.40491191 3
0.44948453 2.9720781 0.15753123 52
0.3085483 2.0401804 -0.40108052 2
0.45107001 2.9825613 0.26390758 3
0.36362341 2.4043477 -0.38514164 1
0.45119902 2.9834144 0.3704828 4
0.45713586 3.02267 -0.37535757 1
0.45017228 2.9766254 0.47681224 3
0.60867637 4.0246849 -0.35611835 1
0.8933515 5.9070115 1.1612636 1
0.44858855 2.9661536 -0.15721722 52
0.89432353 5.9134388 1.3807496 1
0.44943479 2.9717491 -0.052461933 51
0.88772857 5.8698316 1.5907018 1
0.23732339 1.5330158 -0.41566339 7
0.45888761 2.9642336 0.052357219 51
0.26891294 1.7370719 -0.4058117 4
0.45863408 2.9625959 0.15711254 55
0.31626865 2.0429714 -0.40184376 3
0.46269757 2.9888444 0.26460484 3
0.37533817 2.4245372 -0.38858321 2
0.45857343 2.962204 0.36804542 4
0.46829152 3.0249794 -0.37584504 1
0.45965329 2.9691796 0.47587365 4
0.92597938 5.981463 1.1765282 1
0.45955074 2.9685171 -0.15742655 51
0.91495985 5.9102812 1.3807496 1
0.46072316 2.9760904 -0.052566648 47
0.9117592 5.8896065 1.5969135 1
0.24055772 1.5188216 -0.41203991 8
0.47048321 2.9705141 0.052496839 50
0.27497479 1.7361226 -0.4058117 4
0.46741048 2.9511135 0.15658918 46
0.32339805 2.0418549 -0.40184376 3
0.4740628 2.9931147 0.26512778 5
0.38503519 2.4310164 -0.38983467 2
0.46953171 2.9645066 0.3685329 5
0.47760567 3.0154836 -0.37487009 1
0.4693968 2.9636548 0.47524792 4
0.94562447 5.970438 1.1750017 1
0.47022244 2.9688675 -0.15753123 50
0.94046265 5.9378471 1.387948 1
0.46985757 2.9665639 -0.052427027 48
0.94137847 5.9436297 1.6124426 1
0.24705045 1.5236505 -0.41359285 8
0.4807274 2.9648218 0.052427027 50
0.28258377 1.7427976 -0.40761131 3
0.47790402 2.9474092 0.15648451 47
0.32930851 2.030966 -0.39993566 2
0.48343548 2.9815235 0.26425621 3
0.39615586 2.4432383 -0.39202476 2
0.48007631 2.9608064 0.36828914 6
0.49246743 3.0372269 -0.37779495 1
0.48088834 2.9658144 0.47587365 4
0.65148991 4.0179768 -0.35611835 1
0.96875775 5.9746838 1.1765282 1
0.48205972 2.9730387 -0.15784524 51
0.96783388 5.9689856 1.3960463 1
0.47944719 2.9569261 -0.052287411 43
0.7618677 4.6987171 1.2754602 13
0.24952479 1.5056262 -0.40893409 8
0.49107364 2.9631257 0.052427027 50
0.2893028 1.7456456 -0.4085111 5
0.48949569 2.9536045 0.15690319 47
0.33703789 2.0336778 -0.4006989 2
0.49449152 2.9837492 0.26460484 3
0.40048334 2.4165063 -0.38795748 2
0.4946278 2.9845715 0.37145776 4
0.49852249 3.0080719 -0.37438262 1
0.48994616 2.9563224 0.47462216 3
0.57169473 3.4495914 -0.30591667 1
1.2078795 7.2883143 1.4360285 1
0.49439391 2.9831603 -0.15847327 51
0.99822205 6.0232463 1.4095433 1
0.49041975 2.9591801 -0.052357219 47
0.77257931 4.6617236 1.2661427 50
0.25671393 1.5161744 -0.41203991 8
0.5004124 2.9554787 0.052322313 47
0.29409316 1.7369395 -0.40671152 5
0.50080299 2.9577856 0.15721722 51
0.34577343 2.0421677 -0.40260699 2
0.50290805 2.9702182 0.26355895 3
0.40792677 2.4092505 -0.38701886 2
0.50504285 2.9828267 0.37145776 3
0.52293807 3.0885174 -0.38461965 2
0.50454968 2.9799137 0.47868946 3
0.57608253 3.4023929 -0.30190748 2
1.0163444 6.0026178 1.1833974 1
0.50347036 2.9735394 -0.15805459 52
1.0244462 6.0504675 1.4167417 1
0.50208157 2.9653368 -0.052496839 46
0.78336447 4.6266179 1.2573429 28
0.26299223 1.52098 -0.41359285 8
0.51242942 2.9635661 0.052496839 51
0.29882631 1.7282214 -0.40491191 6
0.50942308 2.9461792 0.15669385 47
0.35156181 2.03321 -0.40108052 2
0.51632816 2.986114 0.26512778 3
0.41498786 2.4000258 -0.3857674 1
0.51206958 2.9614849 0.36902037 3
0.54115677 3.1297066 -0.3899819 1
0.51292902 2.9664555 0.47681224 2
0.58048731 3.3571696 -0.29807264 8
1.0580305 6.1189752 1.2070577 1
0.51248574 2.9638915 -0.1576359 51
1.0522007 6.0852594 1.4257398 1
0.51447374 2.9753888 -0.052706268 47
0.26930723 1.5257601 -0.41514575 7
0.52346629 2.9656978 0.052566648 51
0.30824441 1.7463585 -0.40941092 6
0.51866257 2.9384823 0.15637983 46
0.3555856 2.01457 -0.39764595 2
0.52848011 2.9941037 0.26599932 3
0.42817003 2.425797 -0.39014757 1
0.52240396 2.9596794 0.36902037 3
0.54379702 3.0808816 -0.38413218 1
0.52362412 2.9665923 0.47712511 3
0.59531933 3.3727813 -0.29964143 5
1.0793831 6.1152449 1.2070577 1
0.52421719 2.9699521 -0.15805459 52
1.0788554 6.1122546 1.4329382 1
0.52277112 2.9617593 -0.052496839 48
0.27291933 1.5153043 -0.41255757 8
0.53523314 2.9717247 0.052706268 50
0.3136476 1.7414361 -0.4085111 6
0.53104079 2.9484477 0.15700787 51
0.3660956 2.0326383 -0.40146214 2
0.53716242 2.9824367 0.26512778 3
0.43313354 2.4048467 -0.38701886 1
0.53625071 2.9773743 0.37145776 3
0.54751056 3.0398915 -0.37925741 1
0.53397626 2.9647462 0.47712511 3
0.6162712 3.4216645 -0.30417353 1
1.1097708 6.1616759 1.2169797 1
0.53599715 2.9759667 -0.15847327 52
1.1064023 6.1429734 1.4410365 1
0.53239745 2.9559805 -0.052427027 47
0.84341317 4.6828036 1.2749426 55
0.27619907 1.5048904 -0.40996936 8
0.54436284 2.9659998 0.052636459 50
0.31871712 1.7365531 -0.40761131 5
0.54189688 2.952564 0.15732189 49
0.37212524 2.0275509 -0.4006989 3
0.54668993 2.9786792 0.26495346 3
0.44288889 2.4131117 -0.38858321 2
0.54970455 2.9951046 0.37389514 3
0.55257136 3.0107243 -0.37584504 1
0.54344821 2.9610164 0.47681224 2
1.1337416 6.1772723 1.220796 1
0.54730505 2.9820306 -0.15889196 51
1.1387278 6.2044396 1.4563332 1
0.54364085 2.9620662 -0.052566648 47
0.85858858 4.678081 1.274425 52
0.28393802 1.5172093 -0.41359285 8
0.55250567 2.9522882 0.052427027 48
0.32405993 1.731599 -0.40671152 4
0.55256736 2.9526174 0.15742655 51
0.38208961 2.0416777 -0.40375182 4
0.55671763 2.9747944 0.26477915 3
0.44803917 2.3940761 -0.3857674 1
0.55869544 2.9853625 0.37292019 4
0.56818962 3.0360942 -0.37925741 1
0.55668777 2.9746346 0.47931519 3
0.55550653 2.968323 -0.15826394 48
1.1718495 6.2617221 1.4707299 1
0.55471277 2.9640815 -0.052636459 46
0.87668967 4.6845498 1.2770132 55
0.28887033 1.5143113 -0.41307521 8
0.56430656 2.9581985 0.052566648 50
0.32864174 1.7228004 -0.40491191 4
0.56137353 2.9428232 0.15700787 51
0.38921407 2.0403316 -0.40375182 3
0.57008493 2.9884896 0.26617363 3
0.45787391 2.400259 -0.38701886 2
0.56539321 2.9638948 0.3704828 4
0.56762499 2.9755945 -0.37194523 1
0.56595731 2.9668522 0.4783766 4
1.2003833 6.2926292 1.2452195 1
0.56736153 2.9742134 -0.15868261 51
1.1936998 6.2575936 1.4707299 1
0.56655478 2.9699843 -0.052776076 48
0.89014053 4.6662803 1.2728721 87
0.29599759 1.5227755 -0.41566339 7
0.57615542 2.9640627 0.052706268 48
0.33837181 1.740772 -0.40941092 4
0.57202357 2.9428062 0.15711254 52
0.39708298 2.042815 -0.40451506 3
0.5808934 2.9884374 0.26634794 3
0.46700343 2.4025245 -0.38764462 1
0.57876587 2.9774923 0.37243271 5
0.57952338 2.9813895 -0.37292019 1
0.57555628 2.9609804 0.47775087 3
1.2223413 6.2884011 1.2452195 1
0.57697785 2.9682937 -0.15847327 48
0.91397572 4.7019973 1.1058594 5
0.57615542 2.9640627 -0.052706268 47
0.90752935 4.6688337 1.274425 24
0.29793417 1.5046775 -0.41100463 8
0.58844048 2.9718413 0.05288079 49
0.34368914 1.735757 -0.4085111 4
0.58345622 2.9466693 0.15742655 51
0.40039802 2.0221577 -0.4006989 3
0.59093446 2.984437 0.26617363 3
0.48075858 2.4280081 -0.39202476 1
0.58838457 2.9715593 0.37194523 5
0.59455377 3.0027158 -0.37584504 1
0.58397013 2.9492645 0.47618651 3
0.57235891 2.8906236 -0.25780669 1
1.2824177 6.4766822 1.2833813 1
0.58811146 2.97018 -0.15868261 48
0.58572155 2.9581101 -0.052636459 47
0.91631645 4.6277361 1.2640722 47
0.30471203 1.5112033 -0.41307521 8
0.59683424 2.9599681 0.052706268 48
0.3489756 1.7307261 -0.40761131 4
0.59413326 2.9465725 0.15753123 49
0.4109467 2.0380685 -0.40413344 2
0.60095465 2.9804029 0.26599932 3
0.48688829 2.4146967 -0.39014757 1
0.59875369 2.9694872 0.37194523 5
0.59953839 2.9733791 -0.37243271 1
0.59621364 2.9568901 0.47775087 3
0.57456934 2.8495464 -0.25432044 1
1.3050177 6.4721665 1.2833813 1
0.60163391 2.9837718 -0.15952 52
0.93792009 4.6515656 1.0955117 31
0.59802002 2.9658487 -0.052810982 51
0.94621104 4.6926842 1.2827072 52
0.31153908 1.5177001 -0.41514575 7
0.60635865 2.953949 0.052636459 48
0.35501483 1.7294974 -0.40761131 3
0.60602152 2.9523065 0.15794991 49
0.41726884 2.0327752 -0.4033702 2
0.6121558 2.9821904 0.26634794 3
0.49888903 2.4303977 -0.39296338 2
0.60831714 2.96349 0.37145776 4
0.59873736 2.916821 -0.36560804 1
0.60970914 2.9702711 0.48025382 4
0.58531386 2.8514268 -0.25466907 1
0.60923433 2.9679582 -0.1587873 50
0.95767802 4.6654434 1.0995607 86
0.61037958 2.9735374 -0.052985504 47
0.96180892 4.6855679 1.2816719 54
0.31367448 1.5014751 -0.41100463 8
0.61748403 2.9557292 0.052706268 46
0.36104974 1.7282476 -0.40761131 4
0.61550641 2.9462631 0.15774058 48
0.42235461 2.0216975 -0.40146214 2
0.62256187 2.9800355 0.26634794 3
0.50534987 2.4189734 -0.39139903 2
0.61865795 2.9613485 0.37145776 4
0.60242021 2.8836229 -0.36170822 1
0.61764985 2.9565229 0.4783766 4
0.5944488 2.8454659 -0.25432044 2
0.6195907 2.9658136 -0.1587873 45
0.9739576 4.6620722 1.0995607 48
0.62034655 2.9694314 -0.052950602 50
0.98052907 4.6935282 1.2847778 51
0.3225286 1.5173777 -0.41566339 6
0.63029224 2.9652917 0.052915696 50
0.3678906 1.7307892 -0.4085111 4
0.62537181 2.942143 0.1576359 49
0.43267456 2.0355737 -0.40451506 2
0.63337457 2.9797931 0.26652226 3
0.52570099 2.4732287 -0.40047222 2
0.63064212 2.9669378 0.37243271 4
0.60175145 2.831018 -0.355371 7
0.62796628 2.954349 0.4783766 4
0.59857833 2.8160896 -0.25188011 1
1.409866 6.6328979 1.3181086 1
0.63077009 2.96754 -0.15899664 50
0.99751836 4.692955 1.107659 50
0.62987649 2.9633358 -0.05288079 51
0.99770987 4.6938558 1.285813 51
0.32414904 1.4992486 -0.41100463 8
0.64190698 2.9689372 0.05302041 49
0.3731063 1.725685 -0.40761131 4
0.63648212 2.9438465 0.15784524 49
0.43396902 2.0071862 -0.39917243 2
0.64293003 2.9736693 0.26617363 3
0.52431226 2.4250402 -0.39296338 2
0.64267284 2.9724796 0.37340766 5
0.61330789 2.8366613 -0.35634595 9
0.63660526 2.944416 0.47712511 4
0.61093092 2.8256674 -0.25292596 4
1.5661883 7.2439079 1.4406079 12
0.64323527 2.9750807 -0.15952 51
1.0097755 4.6703968 1.10316 45
0.63810366 2.9513464 -0.052706268 50
1.0083729 4.6639094 1.2785661 29
0.32994795 1.5019392 -0.41203991 8
0.65003252 2.9589798 0.05288079 52
0.38049936 1.7320516 -0.40941092 4
0.64752638 2.9475718 0.15815926 46
0.44483516 2.0249114 -0.40298861 2
0.65236002 2.9695749 0.26599932 3
0.53277498 2.4252176 -0.39327624 2
0.65593386 2.9858429 0.37535757 3
0.6278224 2.8578782 -0.35927081 3
0.64806116 2.9500062 0.4783766 4
0.61944282 2.8197339 -0.25257733 2
1.5923076 7.2482619 1.442516 13
0.65481162 2.9807343 -0.15993868 56
1.0323658 4.6993799 1.1108083 53
0.64960343 2.9570267 -0.052845888 47
1.025906 4.6699743 1.2811543 45
0.33645198 1.5064346 -0.41359285 8
0.65904969 2.9508379 0.052776076 50
0.38144577 1.7078903 -0.40401208 3
0.6578114 2.9452934 0.15815926 48
0.45147276 2.0214303 -0.40260699 3
0.66445899 2.9750576 0.26669657 4
0.53607035 2.4002087 -0.38952181 1
0.66462159 2.9757855 0.37438262 4
0.66981393 2.9990339 -0.37730747 1
0.66007698 2.9554377 0.47962806 4
0.62884742 2.8156099 -0.25240302 2
0.66434163 2.9745321 -0.15972933 51
1.0500377 4.7014532 1.1121581 70
0.66297257 2.9684024 -0.053090222 50
1.0489385 4.6965313 1.2894365 47
0.34256369 1.5090188 -0.41462812 7
0.67067409 2.9543695 0.05288079 38
0.38913071 1.71415 -0.4058117 4
0.66808838 2.9429793 0.15815926 46
0.46069923 2.0294147 -0.40451506 2
0.67660409 2.9804919 0.26739383 3
0.54007232 2.3790591 -0.38639313 1
0.67236823 2.9618325 0.37292019 4
0.6697315 2.9502175 -0.37145776 1
0.66995209 2.951189 0.47931519 3
0.63602549 2.8017399 -0.25135717 10
0.74276882 3.2719524 0.65218514 1
0.67339414 2.9663517 -0.15941532 50
1.0604028 4.6711535 1.1058594 24
0.6746583 2.9719203 -0.053194936 47
1.0670367 4.700377 1.291507 50
0.34782907 1.5078138 -0.41462812 7
0.68592709 2.9734442 0.053264745 49
0.39248359 1.701388 -0.40311229 3
0.67880619 2.9425755 0.15826394 49
0.46778041 2.0277941 -0.40451506 2
0.68879527 2.9858775 0.26809105 3
0.54926157 2.3810091 -0.38701886 2
0.68270284 2.9594674 0.37292019 3
0.68805736 2.9826789 -0.37584504 1
0.68024957 2.9488325 0.47931519 3
0.64624935 2.8014443 -0.25153148 13
0.75242037 3.2616878 0.65065867 3
0.68598932 2.9737139 -0.15993868 51
1.0710071 4.6427383 1.1000106 30
0.68502814 2.9695473 -0.053194936 47
1.0843061 4.7003884 1.2925423 49
0.35026518 1.4933631 -0.41100463 8
0.69499421 2.9631228 0.053125124 48
0.40405682 1.7227051 -0.4085111 4
0.69004273 2.9420123 0.1583686 48
0.47296795 2.0165091 -0.40260699 2
0.69927943 2.9813931 0.26791674 3
0.56204444 2.3962886 -0.38983467 2
0.69626504 2.9685411 0.37438262 3
0.68991888 2.9414842 -0.37097028 1
0.69060194 2.9443963 0.47900233 3
0.65605789 2.797117 -0.25135717 10
0.7652666 3.2627308 0.6514219 1
0.69688392 2.9711797 -0.15993868 52
0.69408089 2.959229 -0.053055316 46
0.35592353 1.4940107 -0.41152227 8
0.70533317 2.9606788 0.053125124 48
0.41006774 1.7212842 -0.4085111 3
0.70308524 2.9512429 0.15899664 46
0.48182392 2.022485 -0.40413344 2
0.7069118 2.9673052 0.26687089 3
0.56857443 2.3866258 -0.38858321 2
0.70938319 2.977679 0.37584504 4
0.70846313 2.9738169 -0.37535757 1
0.70224893 2.9477324 0.47994095 3
0.66304725 2.783181 -0.25031129 28
0.75754184 3.1798277 0.63539398 1
0.70863956 2.9745576 -0.16025271 50
2.4062123 10.100223 2.3970785 3
0.70533317 2.9606788 -0.053125124 46
2.4493809 10.281425 2.8319981 2
0.36333698 1.5041522 -0.41462812 7
0.71228325 2.9487293 0.052950602 45
0.413643 1.7124103 -0.40671152 4
0.71188444 2.9470782 0.15889196 45
0.4872534 2.0171447 -0.4033702 2
0.71950507 2.9786265 0.26809105 3
0.57143116 2.3656261 -0.38545454 2
0.71966654 2.9792948 0.37633252 4
0.72525978 3.00245 -0.37925741 1
0.71150607 2.9455118 0.47994095 4
0.67365885 2.788831 -0.25100854 21
0.76752782 3.1774323 0.63539398 1
0.71704298 2.9684339 -0.16004336 50
2.4397616 10.10019 2.3988781 4
0.71556997 2.9623358 -0.053194936 46
2.3777933 9.8436527 2.7134588 23
0.36904538 1.504751 -0.41514575 7
0.72590613 2.95982 0.053194936 48
0.41868955 1.7071707 -0.4058117 4
0.72169155 2.9426355 0.1587873 42
0.49382395 2.0135248 -0.40298861 2
0.73084718 2.9799669 0.26843968 3
0.57968527 2.3636172 -0.38545454 2
0.72722483 2.9651968 0.37487009 4
0.72722483 2.9651968 -0.37487009 1
0.72460663 2.9545214 0.48181814 4
0.68766075 2.8038778 -0.25257733 12
0.75382972 3.0736761 0.61516821 4
0.72644889 2.9620333 -0.15983401 45
2.0878775 8.5131416 2.0236597 28
0.728764 2.971473 -0.053404365 46
2.4056973 9.8090248 2.706212 8
0.37482047 1.5033228 -0.41514575 7
0.7377494 2.9589512 0.053229839 49
0.42807016 1.7168956 -0.4085111 3
0.73201877 2.935967 0.15857795 46
0.5039264 2.0211384 -0.40489668 2
0.74324805 2.981005 0.26878831 3
0.58875662 2.3613739 -0.38545454 2
0.73860496 2.9623828 0.37487009 3
0.74340731 2.9816439 -0.37730747 1
0.73307848 2.940217 0.47994095 3
0.6989038 2.8031499 -0.25275165 10
0.76895088 3.0840936 0.61783952 1
0.7411992 2.9727876 -0.16056672 51
2.1049926 8.4426641 2.0088129 42
0.73920071 2.9647722 -0.053334553 45
7.3926563 29.650326 8.1879997 10
0.37648863 1.4889613 -0.41152227 8
0.75000858 2.966182 0.053404365 48
0.43471667 1.7192452 -0.40941092 3
0.74468839 2.9451413 0.15920597 48
0.50773835 2.0080361 -0.40260699 2
0.7536177 2.9804556 0.26896262 3
0.59658396 2.3594084 -0.38545454 2
0.75231749 2.9753132 0.37682 4
0.75718373 2.9945586 -0.37925741 1
0.74427724 2.9435153 0.48087955 3
0.70379984 2.7834325 -0.25118285 4
0.76954848 3.0434597 0.61020714 1
0.75301164 2.9780586 -0.1609854 51
2.1239014 8.3997412 2.0002649 34
0.74804777 2.9584272 -0.053264745 46
2.0912879 8.2707586 2.2858899 20
0.38216388 1.4895092 -0.41203991 8
0.75837004 2.9557979 0.053264745 51
0.44071528 1.7177173 -0.40941092 3
0.75397158 2.9386547 0.15899664 46
0.51572049 2.0100548 -0.4033702 2
0.76104599 2.9662275 0.26791674 3
0.60383439 2.3534849 -0.38482878 2
0.76664537 2.9880517 0.37876993 3
0.76368535 2.9765146 -0.37730747 1
0.75503844 2.9428127 0.48119241 3
0.71747273 2.7963979 -0.25257733 2
0.75577199 2.9456718 0.59112626 3
0.76240969 2.9715428 -0.16077606 52
2.1561148 8.4036016 2.0029643 24
0.76035792 2.9635458 -0.053404365 48
2.1033416 8.1979151 2.2677724 38
0.38515595 1.4807552 -0.40996936 8
0.76917446 2.9571376 0.053334553 55
0.4444468 1.7087024 -0.40761131 4
0.76773453 2.9516017 0.15983401 46
0.5228774 2.0102336 -0.40375182 2
0.77188122 2.9675438 0.26826537 3
0.62058628 2.3858812 -0.39046043 2
0.76755512 2.9509118 0.37438262 3
0.77255219 2.9701235 -0.37682 1
0.76777661 2.9517634 0.48306963 3
0.73476672 2.8248551 -0.25536633 1
0.76652443 2.9469495 0.5918895 7
0.77326506 2.9728642 -0.1609854 57
2.1903477 8.4209232 2.0088129 38
0.77169138 2.966814 -0.053509079 50
2.1251659 8.1703291 2.2620785 42
0.39452586 1.4942764 -0.41411048 8
0.78307056 2.965899 0.053543981 54
0.44971156 1.7032937 -0.40671152 3
0.77701801 2.9429748 0.15952 49
0.53174531 2.0139985 -0.40489668 2
0.78478712 2.9724004 0.26896262 3
0.62630117 2.3721311 -0.38858321 2
0.7844466 2.9711106 0.37730747 3
0.7743116 2.9327242 -0.37243271 1
0.77758163 2.9451096 0.4824439 3
0.7481671 2.8337011 -0.25641221 1
0.78183097 2.9612041 0.59532404 4
0.78211653 2.9622855 -0.16056672 52
0.78460205 2.9716995 -0.053648699 51
2.1585495 8.17556 2.265702 28
0.39947888 1.4929599 -0.41411048 8
0.79341847 2.9652178 0.053578887 43
0.45737228 1.709323 -0.4085111 3
0.7878055 2.9442406 0.15972933 49
0.5343613 1.9970517 -0.40184376 2
0.79360962 2.9659324 0.26861399 3
0.63875937 2.3872154 -0.39139903 2
0.79326862 2.9646578 0.37682 3
0.78916371 2.9493167 -0.37487009 1
0.78428012 2.9310653 0.48056668 3
0.75446987 2.8196566 -0.25536633 1
0.790124 2.9529057 0.59417921 3
0.79141927 2.9577463 -0.16046204 50
0.79290158 2.9632859 -0.053543981 48
2.1871469 8.173955 2.2672548 29
0.40367612 1.4878274 -0.41307521 8
0.80481142 2.96629 0.053648699 52
0.46231559 1.7039546 -0.40761131 3
0.79860097 2.9434004 0.15983401 46
0.54184318 1.997069 -0.40222538 2
0.80395782 2.9631441 0.26861399 3
0.64036411 2.3601873 -0.38733172 2
0.80569154 2.9695339 0.37779495 3
0.80361235 2.9618707 -0.37682 1
0.79709297 2.9378421 0.48213103 3
0.75387347 2.7785485 -0.25188011 1
0.80608165 2.9709718 0.59837699 4
0.80539984 2.9684587 -0.16119474 51
0.80114603 2.9527805 -0.053404365 48
0.40655956 1.4790295 -0.41100463 8
0.81517357 2.965533 0.053683601 50
0.4720957 1.7174445 -0.41121054 4
0.809416 2.9445875 0.16004336 51
0.54429978 1.980117 -0.39917243 2
0.81589186 2.9681461 0.26931125 3
0.65237588 2.3732886 -0.38983467 2
0.81974363 2.9821587 0.37974489 4
0.81869137 2.9783304 -0.37925741 1
0.80630726 2.9332781 0.48181814 3
0.81280714 2.9569242 0.59608728 4
0.8184154 2.9773266 -0.16182278 51
1.1311702 4.1151023 0.98528564 15
0.81358349 2.9597485 -0.053578887 50
1.1290476 4.1073809 1.141392 21
0.41560981 1.4905556 -0.41462812 7
0.82281482 2.950968 0.053474173 48
0.47629365 1.7081941 -0.40941092 4
0.82288522 2.9512205 0.16056672 49
0.55682659 1.9970199 -0.40298861 2
0.82676518 2.9651358 0.26931125 3
0.65947837 2.3651731 -0.38889608 2
0.82693619 2.965749 0.3780387 3
0.829602 2.9753098 -0.37925741 1
0.819175 2.9379141 0.48306963 3
1.0932565 3.9208884 -0.35611835 1
0.82469392 2.9577074 0.59685051 4
0.82932234 2.9743071 -0.16182278 51
1.1431048 4.0996656 0.98258621 22
0.83140814 2.9817874 -0.05403265 48
1.1368303 4.0771627 1.134145 29
0.42002535 1.4873101 -0.41411048 8
0.83911771 2.9713163 0.05389303 51
0.47983715 1.6991037 -0.40761131 5
0.82941043 2.9369431 0.15993868 45
0.56664729 2.0064986 -0.4052783 2
0.83767635 2.9662127 0.26965988 3
0.6689285 2.3686764 -0.38983467 2
0.83622688 2.9610801 0.37779495 3
0.83946389 2.9725423 -0.37925741 1
0.8273024 2.9294784 0.48213103 3
1.131161 4.0054417 -0.3641367 1
0.83449751 2.9549563 0.59685051 4
0.83592409 2.9600079 -0.16119474 52
1.1519269 4.0789742 0.97853708 34
0.83911771 2.9713163 -0.05389303 47
1.1492944 4.0696521 1.1331098 38
0.42706931 1.4913322 -0.41566339 7
0.85000247 2.9682209 0.05389303 54
0.48713443 1.7010804 -0.4085111 5
0.84016931 2.9338832 0.15993868 45
0.57021427 1.9911964 -0.40260699 2
0.85622156 2.989938 0.27210024 3
0.67543036 2.3586125 -0.38858321 2
0.84762067 2.9599037 0.3780387 3
0.83942318 2.931278 -0.37438262 1
0.83912158 2.9302247 0.48275676 2
1.151319 4.0204229 -0.3658798 1
0.84802479 2.9613149 0.59875864 4
0.8506164 2.9703648 -0.16192745 55
1.1609679 4.0541167 0.97358817 37
0.85000247 2.9682209 -0.05389303 48
1.1604798 4.052412 1.1294863 46
0.42932242 1.4806306 -0.41307521 8
0.86039764 2.9673064 0.053927936 49
0.49385813 1.703199 -0.40941092 3
0.85267484 2.9406724 0.16046204 48
0.57572067 1.9855235 -0.40184376 2
0.85947359 2.9641194 0.2700085 3
0.68104756 2.3487709 -0.38733172 2
0.85964274 2.9647028 0.37901366 3
0.84250516 2.9055994 -0.37145776 1
0.84608334 2.9179399 0.48119241 3
1.1535478 3.9783115 -0.36239359 1
0.86221415 2.9735711 0.60181159 3
0.86435533 2.9809554 -0.16266015 51
1.1733201 4.0465012 0.97268838 42
0.85649943 2.9538624 -0.053683601 48
1.1722976 4.0429754 1.1279334 49
0.43365672 1.4753402 -0.41203991 8
0.8695758 2.9583774 0.053823221 50
0.50009733 1.7013775 -0.40941092 4
0.86795312 2.9528568 0.16129942 51
0.58686966 1.996585 -0.40451506 3
0.87033182 2.9609494 0.2700085 3
0.69410825 2.3614204 -0.38983467 2
0.87274235 2.9691503 0.37998861 3
0.86210597 2.9329643 -0.37535757 1
0.85900074 2.9224 0.4824439 2
0.85235208 2.8997808 -0.26443052 2
0.86867785 2.9553225 0.59875864 3
0.87414879 2.9739351 -0.16245081 52
1.1870443 4.0384345 0.97178853 42
0.8695758 2.9583774 -0.053823221 47
1.1838392 4.0275307 1.1248276 48
0.44295424 1.4887071 -0.41618103 7
0.87824082 2.9516442 0.053753413 51
0.50462508 1.6959741 -0.4085111 4
0.87660122 2.9461339 0.16109008 48
0.5912478 1.987101 -0.40298861 2
0.88469154 2.9733243 0.27140298 3
0.69404829 2.3325989 -0.38545454 2
0.88484812 2.9738505 0.38096356 3
0.86729836 2.9148681 -0.37340766 1
0.87206715 2.9308953 0.48432112 2
0.85400862 2.8702033 -0.26199016 13
0.87847328 2.9524255 0.59875864 3
0.88286674 2.9671912 -0.16224146 56
1.2004297 4.0344758 0.97178853 46
0.88109225 2.9612274 -0.053927936 50
1.1977395 4.0254345 1.1253452 52
0.44561905 1.4778256 -0.41359285 8
0.89540362 2.9694655 0.054137364 56
0.50971252 1.6903816 -0.40761131 3
0.88681686 2.9409888 0.1609854 49
0.59739333 1.9811612 -0.40222538 2
0.89673376 2.973877 0.27175161 3
0.71399873 2.3678648 -0.39171189 2
0.88886476 2.9477806 0.3780387 3
0.8670873 2.8755591 -0.36877662 2
0.88394409 2.931462 0.48494685 2
0.87200028 2.8918521 -0.26425621 27
0.88928854 2.9491861 0.59875864 3
0.89431268 2.9658477 -0.16234614 58
1.2129583 4.0225859 0.96998894 50
0.89482629 2.967551 -0.054102462 47
1.2124853 4.0210176 1.1253452 51
0.45220879 1.481883 -0.41514575 7
0.90407848 2.9626546 0.054067556 52
0.51759034 1.6961377 -0.40941092 4
0.89598167 2.9361217 0.16088073 48
0.6039598 1.9791694 -0.40222538 2
0.90484601 2.9651699 0.27122867 3
0.71723449 2.3503692 -0.38920894 2
0.90558779 2.9676006 0.38096356 3
0.87314188 2.8612759 -0.36731419 7
0.89366037 2.9285145 0.48494685 2
0.88507432 2.9003782 -0.26530209 11
0.90250164 2.9574873 0.60104835 3
0.90764052 2.9743276 -0.16297416 58
1.2206032 3.9999027 0.96548992 50
0.90116018 2.9530916 -0.05389303 48
1.2269406 4.0206699 1.1263804 50
0.45509759 1.4729124 -0.41307521 8
0.91323388 2.9556596 0.053997744 43
0.52120668 1.6868731 -0.40761131 4
0.90917325 2.9425175 0.16140409 49
0.61376256 1.9864279 -0.40413344 2
0.9134264 2.9562826 0.27070573 3
0.72543442 2.3478513 -0.38920894 2
0.91711313 2.9682148 0.38145104 3
0.88605434 2.8676937 -0.3685329 8
0.90154475 2.9178278 0.48369536 3
0.89519316 2.8972712 -0.26530209 2
0.91629708 2.9655735 0.60333806 3
0.91742772 2.9692328 -0.1628695 51
1.2368592 4.0030651 0.96728951 45
0.91264355 2.9537492 -0.053962842 46
1.2386867 4.0089798 1.1243099 51
0.46055585 1.4732391 -0.41359285 7
0.92541683 2.9602494 0.054137364 49
0.53144932 1.7000152 -0.41121054 4
0.91833007 2.9375801 0.16129942 46
0.62151802 1.9881293 -0.40489668 2
0.91846889 2.9380243 0.26931125 3
0.72496456 2.3190372 -0.38482878 2
0.92754334 2.9670517 0.38169479 3
0.89970523 2.8780024 -0.37023908 3
0.91475207 2.9261346 0.48557258 2
0.92612624 2.9625187 0.60333806 3
0.9308446 2.977612 -0.16349752 52
1.256523 4.0194011 0.97223848 46
0.92601347 2.962158 -0.05417227 45
1.2496685 3.9974747 1.1222394 52
0.46653563 1.4733828 -0.41411048 8
0.93565685 2.9549313 0.054102462 50
0.53414702 1.6869088 -0.4085111 5
0.93270814 2.9456189 0.16192745 46
0.62109625 1.9615062 -0.39993566 2
0.93644845 2.9574313 0.27140298 6
0.73465204 2.3201308 -0.38545454 2
0.93961042 2.9674172 0.38218227 5
0.92043465 2.9068577 -0.37438262 1
0.92606705 2.9246454 0.48588544 3
1.2516052 3.9527392 -0.36274222 13
0.93342233 2.9478745 0.60104835 3
0.93934017 2.9665639 -0.16307884 52
1.2677168 4.0036221 0.96953905 42
0.93927872 2.9663699 -0.05431189 46
1.2695601 4.0094433 1.1268982 50
0.47141898 1.4718276 -0.41411048 8
0.94789046 2.95943 0.054242078 51
0.53854924 1.6814166 -0.40761131 4
0.94247103 2.9425099 0.16192745 46
0.63777792 1.9912206 -0.40642315 2
0.94564277 2.9524124 0.27122867 3
0.74535459 2.3270881 -0.38701886 2
0.94641799 2.9548326 0.38096356 3
0.92159188 2.8773227 -0.37097028 1
0.93636298 2.9234397 0.48619831 3
1.2640983 3.9466696 -0.3625679 9
0.9479835 2.9597204 0.6041013 3
0.94978172 2.9653347 -0.16318351 55
1.2809863 3.9993958 0.96953905 42
0.95155025 2.9708562 -0.054451507 43
1.2863845 4.0162497 1.1300039 47
0.47986937 1.4812832 -0.4172163 7
0.96139675 2.9676845 0.054451507 51
0.54652435 1.687037 -0.40941092 4
0.95222354 2.9393682 0.16192745 48
0.63953716 1.9741532 -0.4033702 2
0.95849824 2.9587374 0.27210024 3
0.75793767 2.3396375 -0.38952181 2
0.95988202 2.9630086 0.38242599 3
0.93969327 2.9006894 -0.37438262 1
0.94666106 2.9221978 0.4865112 3
1.2741089 3.9329789 -0.36169633 8
0.95900315 2.9602959 0.60486454 3
0.96207201 2.969769 -0.1636022 55
1.2984458 4.0081034 0.97268838 44
0.96139675 2.9676845 -0.054451507 43
1.3032681 4.0229888 1.1331098 43
0.48357591 1.4760121 -0.41618103 7
0.97123265 2.9644802 0.054451507 51
0.5521158 1.6852154 -0.40941092 4
0.96694022 2.9513783 0.16276482 51
0.64608014 1.9720216 -0.4033702 2
0.96830451 2.9555426 0.27210024 3
0.76015687 2.3202164 -0.38670599 2
0.97959107 2.9899924 0.38632581 3
0.94930714 2.8975573 -0.37438262 1
0.95327115 2.9096565 0.48494685 2
1.2747378 3.8908648 -0.35821012 6
0.9700371 2.9608309 0.60562778 3
0.97502398 2.9760523 -0.16412556 51
1.3153703 4.0148869 0.97538775 35
0.96998751 2.9606795 -0.054381698 45
1.3153987 4.0149732 1.1320745 40
0.48290065 1.4558936 -0.41100463 8
0.98146194 2.9590025 0.054416604 49
0.5619697 1.6942784 -0.41211033 4
0.97837985 2.9497101 0.1628695 49
0.6489771 1.9565963 -0.4006989 3
0.98226684 2.9614291 0.27297178 3
0.7611931 2.2949154 -0.38295156 2
0.98429388 2.9675403 0.38388842 3
0.95992088 2.8940582 -0.37438262 1
0.97139186 2.9286423 0.48870125 3
1.2877356 3.8823843 -0.35786149 8
0.97964638 2.9535286 0.60486454 3
0.98844033 2.9800415 -0.16454424 52
1.3325309 4.0174375 0.9771874 31
0.98335057 2.9646964 -0.054521319 43
1.3331463 4.0192933 1.1346627 28
0.49141151 1.4652737 -0.41411048 8
0.98936146 2.9500437 0.05431189 48
0.56386727 1.6813198 -0.40941092 4
0.98879111 2.9483433 0.16297416 48
0.6660741 1.9860767 -0.40718639 2
0.99524945 2.9676003 0.27384335 3
0.7775926 2.3185987 -0.38733172 2
0.99286675 2.9604957 0.38340095 3
0.9606759 2.8645103 -0.37097028 1
0.98235446 2.9291506 0.48932701 2
1.2942678 3.8592029 -0.35611835 6
0.99255651 2.9595706 0.6067726 1
0.99704695 2.97296 -0.16433491 51
1.3532814 4.0351677 0.98258621 19
0.99317646 2.9614193 -0.054521319 43
1.3550673 4.0404925 1.1419096 18
0.49553674 1.4598042 -0.41307521 8
1.0046667 2.9596527 0.054556221 52
0.5675202 1.6718606 -0.40761131 5
1.0047266 2.9598293 0.16381155 57
0.66830039 1.9687495 -0.40413344 2
1.0074004 2.967706 0.27419198 3
0.78354561 2.3082509 -0.38608027 2
1.0030727 2.954957 0.38315722 3
0.9711684 2.86097 -0.37097028 1
0.99562359 2.9330125 0.49057847 2
1.3045611 3.8431132 -0.3550725 6
1.376358 4.0546203 0.83230883 2
1.0079367 2.9692857 -0.16433491 56
2.2318702 6.5748777 1.6030012 2
1.0059522 2.9634399 -0.054626033 50
2.2920127 6.7520518 1.9106022 3
0.50439352 1.4690285 -0.41618103 7
1.0182387 2.9655843 0.054730747 54
0.57714969 1.6809281 -0.41031072 5
1.0163496 2.9600823 0.16402088 57
0.67261833 1.9589773 -0.40260699 2
1.0171065 2.9622869 0.27401766 3
0.78903216 2.2980285 -0.38482878 2
1.0178939 2.9645803 0.38486338 3
0.99017417 2.8838475 -0.37438262 1
1.0045726 2.9257827 0.48995274 2
1.310204 3.8159232 -0.35298076 8
10.254401 29.865583 6.1379437 20
1.0195925 2.9695272 -0.16454424 57
2.2105086 6.4380283 1.571508 22
1.0156411 2.958019 -0.054591127 45
9.8958998 28.821461 8.1652231 10
0.50977439 1.4671699 -0.41618103 7
1.0304139 2.9656103 0.054800555 55
0.57946914 1.6677567 -0.40761131 4
1.0291585 2.961997 0.16433491 59
0.67721641 1.9490809 -0.40108052 2
1.0266492 2.9547753 0.27366903 3
0.80522954 2.3175125 -0.38858321 2
1.0300559 2.9645798 0.38535085 3
1.0007373 2.880199 -0.37438262 1
1.0139928 2.918349 0.48932701 2
1.3215656 3.8035674 -0.35228351 6
1.0304695 2.9657702 -0.16454424 56
2.2372882 6.4390874 1.5737575 24
1.024507 2.9486098 -0.054486413 50
10.032537 28.874414 8.190587 5
0.51233101 1.458091 -0.41411048 8
1.0381079 2.9544489 0.054660939 51
0.59045529 1.6804322 -0.41121054 4
1.0348568 2.9451964 0.1636022 46
0.68922246 1.9615231 -0.40413344 2
1.6624336 4.7312765 0.43874201 41
0.80676585 2.2960508 -0.38545454 2
10.155231 28.901728 3.7613754 26
1.010785 2.8766882 -0.37438262 1
1.0294123 2.9297013 0.49182996 1
1.353328 3.8515635 -0.35716423 4
1.0401536 2.9602709 -0.16443957 50
2.2687953 6.4569783 1.5800562 19
1.0427482 2.9676552 -0.054905269 46
10.482292 29.832542 8.4727001 34
0.51353693 1.4453716 -0.41100463 8
1.0423892 2.9338486 0.054346792 45
0.59501261 1.6746883 -0.41031072 4
1.0511492 2.9585042 0.16454424 49
0.69672251 1.9609551 -0.40451506 2
1.6869432 4.7479734 0.44083375 56
0.81609833 2.2969434 -0.38608027 2
10.272005 28.910995 3.767225 33
1.0168328 2.8619192 -0.37292019 1
10.584147 29.789534 5.0071545 50
1.3894435 3.9106479 -0.36309081 8
2.2577753 6.3546047 1.3108578 1
1.0424565 2.9340382 -0.16318351 20
2.2913206 6.449019 1.5800562 20
10.590891 29.808514 8.4763241 5
0.52445722 1.459933 -0.41566339 7
0.59953707 1.6689332 -0.40941092 4
0.70621824 1.9659019 -0.40604153 2
1.7035065 4.7420559 0.44083375 45
0.82411122 2.2940807 -0.38608027 2
10.383598 28.904854 3.7711251 33
1.0214477 2.8434067 -0.37097028 1
10.705432 29.800741 5.0152888 41
1.4205991 3.9545259 -0.36762291 9
2.2567124 6.2820172 1.2975012 11
1.9534557 5.4378405 -0.30281585 2
2.3157945 6.4464836 1.5814059 6
10.423832 29.016851 8.2615042 11
0.53299409 1.4691745 -0.41876921 7
10.803054 29.778137 0.55292714 40
0.60477722 1.6670414 -0.40941092 4
1.7409863 4.7989511 0.26754141 1
0.70703447 1.948909 -0.40298861 2
1.7149982 4.7273164 0.43996218 17
0.83266157 2.2951944 -0.38670599 2
10.491957 28.920609 3.7774622 26
1.0303754 2.8401837 -0.37097028 1
10.8118 29.802244 5.0212336 20
1.3786575 3.8002079 -0.35367802 1
2.2409513 6.1770821 1.2772754 28
1.9705296 5.4316769 -0.30281585 2
10.839469 29.878511 7.3379035 7
10.526798 29.016649 8.2708216 11
0.52947205 1.4437265 -0.41203991 8
10.929655 29.8022 0.554079 40
0.6105926 1.6649202 -0.40941092 4
1.7425981 4.7515917 0.26523861 8
0.71045327 1.9372131 -0.40108052 2
1.7246292 4.7025952 0.43821907 15
0.84746969 2.3108199 -0.38983467 2
10.607882 28.92481 3.7828245 33
1.0368657 2.8272512 -0.3697516 2
2.215256 6.0404015 1.0190141 6
1.3576138 3.7018442 -0.34496242 1
2.2665555 6.1802812 1.2795651 50
2.0087328 5.4772692 -0.30574664 2
2.2243016 6.0650663 1.4914255 26
10.958572 29.881052 -0.55554497 12
10.657953 29.061346 8.2941151 5
0.53476006 1.4417763 -0.41203991 8
11.054111 29.803188 0.55484688 40
0.62075686 1.6736338 -0.41211033 3
1.7565291 4.7358098 0.26471525 9
0.72096241 1.9437997 -0.40298861 3
11.024117 29.722321 2.7734702 22
0.84906417 2.2891772 -0.38670599 2
10.727632 28.92296 3.7876992 46
1.053434 2.8401825 -0.37194523 1
2.2353194 6.0266852 1.0180755 1
1.3781012 3.7155237 -0.34670556 1
2.2714412 6.1240735 1.2696431 20
2.0065689 5.4099464 -0.30239716 2
2.2499046 6.066009 1.493675 41
5.6480556 15.227824 -0.28349689 5
11.072085 29.851652 8.5311937 35
0.54385829 1.4507543 -0.41514575 7
5.6674829 15.118138 0.28182146 8
0.62385893 1.6641577 -0.41031072 3
1.7758538 4.7371302 0.26513395 27
0.72774309 1.9412713 -0.40298861 2
11.145984 29.732164 2.7780023 22
0.86190355 2.2991474 -0.38889608 2
10.762328 28.708755 3.764544 6
1.0675226 2.8476408 -0.37340766 1
2.2695174 6.0539894 1.02402 28
1.3973569 3.7274811 -0.34827435 3
2.2755756 6.0701494 1.2601026 20
2.0338538 5.4253511 -0.30365321 2
2.2457552 5.990603 1.4770286 41
5.663271 15.106904 -0.28161204 5
11.195886 29.86528 8.5462046 11
0.55028796 1.4524602 -0.41618103 7
5.7173862 15.090783 0.28168184 24
0.62414074 1.6473913 -0.40671152 4
1.7994547 4.7495794 0.26618066 45
0.73381943 1.9368832 -0.40260699 2
11.272289 29.752697 2.7835801 22
0.86572468 2.2850411 -0.38701886 2
10.873728 28.700714 3.7684438 6
1.0633903 2.8067706 -0.3685329 1
2.2605422 5.966599 1.0105666 22
1.3976537 3.689044 -0.34513673 3
2.292577 6.0511537 1.2578129 8
2.0400424 5.3846002 -0.30176914 2
2.2521539 5.9444585 1.4675807 39
5.7315559 15.128183 -0.28237993 5
2.2237382 5.8694568 1.6818062 21
0.55673611 1.4541388 -0.4172163 7
5.7750335 15.083807 0.28192618 12
0.63685519 1.6634017 -0.41121054 4
1.8138806 4.7376738 0.26586667 40
0.73706609 1.9251425 -0.4006989 2
11.397448 29.76899 2.7888095 22
0.87440199 2.2838502 -0.38733172 2
1.0717616 2.7993338 -0.36804542 1
2.2665234 5.9199314 1.0039964 25
1.419071 3.7064707 -0.34722847 3
11.411187 29.804874 6.2035823 20
2.0602541 5.3811765 -0.30197847 2
2.2728901 5.9365606 1.4675807 30
2.2469759 5.868875 1.6838768 38
0.55712324 1.4415708 -0.41411048 8
11.308863 29.261974 0.54758668 13
0.6392678 1.654122 -0.40941092 4
1.8359553 4.7505817 0.26691338 42
0.74381816 1.9246488 -0.40108052 2
11.499533 29.755337 2.7909012 22
0.88584512 2.2921472 -0.38920894 2
2.2598538 5.8474302 0.76972675 28
1.090569 2.8218756 -0.37145776 1
2.2915189 5.9293647 1.0068122 24
1.4314264 3.7038529 -0.34740278 1
11.540152 29.860441 6.2226629 20
2.0857892 5.3970332 -0.30323452 2
2.3027689 5.9584746 1.4747791 41
2.2472959 5.8149362 1.6704181 50
0.56285453 1.4414167 -0.41462812 7
0.6507085 1.6664025 -0.41301015 4
1.8590649 4.7608881 0.26785544 48
0.75624484 1.9366708 -0.40413344 2
11.619271 29.755846 2.7947361 22
1.8767784 4.8062501 -0.81721365 3
2.2816954 5.843204 0.77021426 37
1.0989685 2.8143535 -0.37097028 1
2.3122025 5.9213295 1.0068122 27
1.4370995 3.6802745 -0.34565967 3
11.684304 29.922388 6.2440333 21
2.0958979 5.3673944 -0.30197847 2
2.3270981 5.959476 1.4770286 44
2.2507155 5.7638674 1.6579947 43
0.56433773 1.4304579 -0.41203991 8
0.65366071 1.6568698 -0.41121054 5
1.8771383 4.7580853 0.26806477 40
0.75723654 1.919409 -0.40108052 2
11.750853 29.785534 2.8013599 23
1.8848445 4.7776194 -0.81345922 3
2.2955215 5.8185849 0.76802063 36
1.1073288 2.806807 -0.3704828 1
2.3379321 5.9260855 1.0090023 25
1.457249 3.6937695 -0.34740278 1
10.888787 27.600409 5.7673926 9
2.1102228 5.3488979 -0.30135044 2
2.2757843 5.7685552 1.6616182 42
0.57576466 1.4446305 -0.41669866 7
1.9152948 4.8055978 0.09029875 2
0.65511137 1.6437165 -0.4085111 3
1.8782071 4.7125421 0.26586667 14
0.77410799 1.9422866 -0.40642315 2
11.878357 29.80356 2.8069379 23
1.909555 4.7911959 -0.81690079 5
2.2695165 5.6943626 0.75266504 30
1.1141797 2.7955484 -0.36950785 1
1.4701339 3.6886601 -0.34740278 1
11.008325 27.620592 5.7796044 18
2.1229656 5.3266568 -0.30051306 2
11.92548 29.921795 7.4364319 7
2.2980521 5.7659597 1.6631712 43
0.58177745 1.4443024 -0.4172163 7
1.9231824 4.7744322 0.089844987 16
0.66550022 1.6521499 -0.41121054 4
1.8865118 4.6833954 0.26461059 6
0.77682036 1.9285098 -0.40413344 2
2.2608256 5.6126552 0.52938396 4
1.9263647 4.7823324 -0.81658792 5
2.2888887 5.6823235 0.7521776 28
1.1348023 2.8172245 -0.37292019 1
3.7516136 9.3136387 1.5903127 12
1.4702439 3.6499815 -0.34426519 3
3.7527978 9.3165779 1.9523576 21
2.1514294 5.3410711 -0.30176914 4
3.7498097 9.3091602 2.3169959 26
3.7723961 9.3652325 -0.17623439 32
2.3278315 5.7790017 1.6693828 47
0.58317518 1.4333159 -0.41462812 7
1.9300393 4.7436104 0.089391224 9
0.66832554 1.6425966 -0.40941092 4
3.8049443 9.3517132 0.52911651 59
0.78058779 1.9185125 -0.40260699 2
2.2901652 5.6287203 0.53165001 33
0.92462206 2.272517 -0.38858321 2
2.322176 5.707396 0.75656486 25
1.1356518 2.7911816 -0.36999533 1
3.7759123 9.2803593 1.5868713 36
1.4882319 3.6577454 -0.34548536 3
3.7756774 9.2797813 1.9473966 42
2.1617804 5.313179 -0.30061772 4
3.7697966 9.2653284 2.3093476 43
3.7779334 9.285326 -0.17497782 52
2.3443496 5.7618937 1.6667947 12
0.58425504 1.4224391 -0.41203991 8
1.9510775 4.7501326 0.089635558 34
0.67969215 1.6547922 -0.41301015 4
3.8017869 9.2559071 0.52440625 52
0.78470778 1.9104654 -0.40146214 2
2.3088181 5.6210947 0.53165001 37
0.92764974 2.2584748 -0.38670599 2
2.3456151 5.7106814 0.75802732 30
1.1449015 2.7874002 -0.36999533 1
3.7954085 9.2403774 1.5821782 46
1.5018672 3.6564763 -0.34583399 3
3.7885273 9.2236252 1.9382378 43
2.1846995 5.3189135 -0.30135044 2
3.7864332 9.2185268 2.3007994 42
3.8125026 9.2819958 -0.17515235 60
3.7756383 9.1922445 2.6627302 8
0.59217763 1.4275287 -0.41411048 8
1.9745426 4.7599168 0.089949705 42
0.67799735 1.6344094 -0.4085111 3
3.8440216 9.2665625 0.52576703 54
0.79513305 1.9167817 -0.4033702 2
2.2902544 5.5209851 0.52293444 27
0.92947245 2.2406261 -0.38420305 2
2.3640134 5.698792 0.75753987 27
1.1698368 2.8200586 -0.37487009 1
3.8283973 9.228898 1.582491 41
1.5169117 3.6567323 -0.34635693 1
3.8222053 9.2139711 1.939001 43
2.1711106 5.2337723 -0.29695421 4
3.8238156 9.2178535 2.3039486 37
3.8517754 9.2852545 -0.17546649 56
3.8136239 9.193285 2.6668715 35
0.59864992 1.4290166 -0.41514575 7
1.9957817 4.7640615 0.090159133 44
0.68369842 1.6320329 -0.4085111 4
3.8717141 9.2420349 0.52513897 19
0.8063705 1.9248592 -0.40565991 3
2.3025837 5.496418 0.52136564 26
0.94186765 2.2482996 -0.38608027 2
3.8650031 9.2260151 1.2281992 14
1.1674012 2.7866631 -0.37097028 1
3.8728008 9.2446289 1.587497 11
1.5296669 3.6514151 -0.34635693 1
2.1893668 5.226162 -0.29695421 2
12.257395 29.259203 8.5001354 23
0.60965574 1.4411517 -0.41928685 7
2.0170739 4.768116 0.090368561 44
0.69698352 1.6475838 -0.41301015 4
2.2854106 5.4024315 0.30742142 22
0.81155479 1.9184164 -0.40489668 2
2.3264132 5.4993567 0.52241153 24
0.95586687 2.2595525 -0.38858321 2
12.512136 29.57716 3.9432044 14
1.1461852 2.7094419 -0.36122075 1
12.608669 29.805353 5.1257315 31
1.5470608 3.657063 -0.34740278 1
2.1196659 5.0106311 -0.2851263 4
12.561647 29.694199 7.4436302 23
12.342142 29.175316 8.4882298 11
0.60861164 1.4248024 -0.41514575 7
2.0376329 4.7702408 0.090543084 46
0.69507539 1.62722 -0.4085111 3
2.3144541 5.4182982 0.30878213 37
0.81207675 1.9011283 -0.40184376 3
2.3432474 5.4857059 0.52188861 22
0.95754063 2.2416694 -0.38608027 2
12.644155 29.600847 3.9522228 21
1.1353617 2.6579609 -0.35488352 1
12.770054 29.895586 5.1488838 48
1.5441641 3.6149957 -0.34391657 1
11.672157 27.325335 5.7757883 9
2.1340051 4.9958549 -0.28470761 19
12.697373 29.725439 7.4625263 7
2.0643406 4.8327651 -0.09172985 2
12.500064 29.263523 8.526535 17
0.61281639 1.4208953 -0.41462812 7
2.0511041 4.7557545 0.090403467 28
0.70383823 1.6319414 -0.41031072 4
2.3325622 5.4083524 0.30867746 28
0.82337296 1.9090985 -0.40413344 2
2.364749 5.4829812 0.52241153 24
0.96379507 2.2346857 -0.38545454 2
12.770202 29.609392 3.9592912 21
1.1650726 2.7013741 -0.36122075 1
12.853992 29.803669 5.1407495 21
1.5536172 3.6022656 -0.34321931 3
11.75814 27.262793 5.7712088 9
2.195725 5.0910769 -0.29056922 4
12.808775 29.69883 7.4670253 7
2.062191 4.7814612 -0.090892136 52
12.619733 29.260511 8.5384407 23
0.61675394 1.417084 -0.41411048 8
2.0556912 4.7232566 0.089914799 19
0.7170229 1.6474669 -0.41480973 4
2.3026617 5.2907081 0.30239716 20
0.83361661 1.9153583 -0.40604153 3
2.3853035 5.4805899 0.52293444 6
0.96804702 2.2242322 -0.38420305 2
12.873074 29.577803 3.9607537 21
1.1835306 2.7193377 -0.36414561 1
13.019759 29.914837 5.1673431 37
1.5846366 3.6409385 -0.34740278 1
11.871985 27.277655 5.7826576 27
2.1783226 5.0050206 -0.28606835 4
2.0812278 4.7819304 -0.091031753 62
12.736739 29.264557 8.551899 23
0.62688744 1.4274125 -0.41773394 7
2.2763865 5.1832948 0.098815523 12
0.70994449 1.6165321 -0.40761131 3
2.3226027 5.2885289 0.30271116 24
0.83601642 1.9035957 -0.40413344 2
13.126923 29.88979 2.8560936 24
0.98653793 2.2463307 -0.38858321 2
12.98705 29.571302 3.9656284 14
1.2021203 2.7372084 -0.36707047 1
13.138747 29.916714 5.1751652 48
1.5918947 3.6247184 -0.34635693 1
11.982112 27.283075 5.7921977 36
2.103353 4.7893004 -0.27413574 46
12.405222 28.246489 7.1224003 7
2.1010942 4.7841573 -0.091206275 20
3.1833763 7.2484961 2.1212809 1
0.62770408 1.4164948 -0.41514575 7
2.3202975 5.2360492 0.099967383 31
0.72161734 1.628422 -0.41121054 3
2.3433642 5.2881017 0.30312985 20
0.83675659 1.8882486 -0.40146214 3
13.245341 29.889812 2.8602772 24
0.98917973 2.2322109 -0.38670599 2
13.12284 29.613373 3.9770842 7
1.2176245 2.747726 -0.36902037 1
13.254688 29.910904 5.181735 16
1.6135924 3.6412783 -0.34844866 1
12.096382 27.297037 5.8036466 36
2.1216509 4.7877774 -0.27444977 48
12.487769 28.180254 7.1161017 7
2.1031747 4.7460837 -0.090612896 37
3.2160051 7.257328 2.1269748 22
0.63160938 1.4126419 -0.41462812 7
2.3425455 5.2392793 0.10017681 39
0.72701341 1.6260201 -0.41121054 4
2.3625176 5.2839484 0.30333921 24
0.84141093 1.8818789 -0.4006989 3
13.367158 29.896652 2.8651578 24
1.0062521 2.2505584 -0.39046043 2
13.238795 29.609562 3.9824464 7
1.2024219 2.689307 -0.36170822 1
13.361867 29.884819 5.184864 5
1.6272849 3.639545 -0.34879729 1
12.204466 27.296206 5.8120422 37
2.1464834 4.8007717 -0.27560115 50
12.609785 28.202732 7.132298 7
2.1327775 4.7701173 -0.091206275 47
3.2424192 7.2519145 2.1285279 27
0.63757771 1.4120781 -0.41514575 7
2.3214104 5.1413541 0.098466478 22
0.72655272 1.6091359 -0.40761131 4
2.3892655 5.2916365 0.30428123 24
0.85718971 1.8984648 -0.40489668 2
13.51108 29.923725 2.872479 24
1.0014877 2.2180495 -0.38545454 2
13.358667 29.586168 3.9858587 7
1.2090031 2.677645 -0.36073327 1
1.629135 3.608134 -0.34635693 1
12.330282 27.308548 5.8242536 37
2.1648867 4.7946925 -0.27570581 52
13.343389 29.55233 7.4859214 7
2.1518922 4.765913 -0.091276087 45
3.2642071 7.2294173 2.125422 27
0.64145601 1.408198 -0.41462812 7
2.3202102 5.0935922 0.097698569 26
0.73026913 1.6031709 -0.40671152 4
2.4101119 5.2909546 0.30469993 1
0.85452831 1.8759589 -0.4006989 3
13.626755 29.91502 2.8759651 24
1.0137507 2.225502 -0.38733172 2
13.483861 29.601322 3.9939022 14
1.1981266 2.630265 -0.35488352 1
13.653699 29.974171 5.2167764 5
1.6460465 3.6135907 -0.34740278 1
12.441933 27.313961 5.8341761 37
2.1782908 4.7820344 -0.27539179 46
13.473627 29.578857 7.5039172 15
2.1726584 4.7696695 -0.091485515 45
3.2681422 7.174602 2.1124811 21
0.65145653 1.4163681 -0.41773394 7
2.3438773 5.0959544 0.097907998 26
0.73288292 1.5934017 -0.40491191 4
13.502812 29.35722 1.6934869 21
0.87042248 1.8924342 -0.40489668 2
13.77294 29.944519 2.8836348 24
1.0161227 2.209209 -0.38514164 2
13.631251 29.636465 4.0053577 7
1.2077589 2.6258562 -0.35488352 1
1.6409638 3.5677111 -0.34356794 1
12.560008 27.307415 5.8425713 18
2.1482315 4.6705904 -0.26942551 48
13.609635 29.58947 7.5192142 15
2.2009885 4.7852921 -0.091939278 52
3.2282214 7.0186572 2.0700347 21
0.65858907 1.4194573 -0.41928685 7
2.3700211 5.1081076 0.098291956 27
0.75128567 1.6192464 -0.41211033 4
13.620264 29.355762 1.695999 21
0.87338811 1.8824137 -0.4033702 2
13.898997 29.956516 2.8892128 24
1.0217803 2.2022436 -0.38451591 1
1.1796987 2.5426052 -0.34415904 1
1.6628484 3.5839379 -0.34565967 1
13.9519 30.070536 6.4436197 11
2.1746359 4.6869936 -0.27078623 30
