# .PCD v0.7 - Point Cloud Data file format
VERSION 0.7
FIELDS x y z intensity
SIZE 4 4 4 4
TYPE F F F F
COUNT 1 1 1 1
WIDTH 1367
HEIGHT 1
VIEWPOINT 0 0 0 1 0 0 0
POINTS 1367
DATA ascii
1.4943601 0.6226542 -0.43378073 7
3.4056318 1.4190227 0.064399377 20
1.7232842 0.71803987 -0.43100622 3
3.379359 1.4080756 0.19186361 18
2.0260766 0.84420413 -0.42664891 2
20.484196 8.5351381 1.9414814 57
2.4251523 1.0104868 -0.41611567 1
20.482468 8.5344181 2.7245111 63
30.473042 12.697186 5.2286654 5
3.4520411 1.43836 -0.32718265 4
32.739803 13.641675 6.8943105 12
3.4438858 1.4349619 -0.19552714 12
32.085823 13.369183 8.0249043 8
8.3599491 3.4833353 -0.1580839 15
32.123394 13.384835 9.3247328 6
1.4858094 0.61301333 -0.43067488 7
3.4272013 1.4139901 0.064713523 18
1.7239786 0.71127683 -0.43055633 3
3.4027164 1.4038882 0.19291033 18
2.018122 0.83263403 -0.4243592 1
20.583851 8.4924583 1.9481052 57
2.461534 1.0155765 -0.42174733 1
20.574526 8.4886103 2.7327981 63
3.220504 1.3287113 -0.42776141 1
30.566483 12.611079 5.237113 5
3.4478319 1.4225019 -0.32631111 9
32.776333 13.522816 6.8920207 12
3.4654903 1.4297875 -0.19646917 10
31.818846 13.127777 7.9466209 8
8.3794518 3.4571831 -0.15822351 23
31.998478 13.20189 9.2750397 6
1.4880463 0.60756344 -0.43067488 7
3.4268067 1.3991517 0.064608812 20
1.7355949 0.70863652 -0.43280584 3
3.4337261 1.4019768 0.19437574 21
2.0211601 0.82523167 -0.4243592 1
20.683088 8.4448233 1.9545547 58
2.4725549 1.0095345 -0.42299879 1
20.693714 8.4491615 2.7444975 63
3.2253523 1.3168987 -0.42776141 1
30.720398 12.543017 5.2555723 5
3.4419551 1.4053367 -0.32526523 9
32.756607 13.374393 6.8775196 12
8.4225216 3.4388824 -0.47678056 21
31.635817 12.916779 7.8890333 16
8.417985 3.4370301 -0.15871218 23
33.255688 13.578167 9.6249628 7
1.5062776 0.60888147 -0.43533364 7
3.4353776 1.3886802 0.064678617 20
1.730831 0.69965255 -0.43100622 3
3.444154 1.3922279 0.19468975 18
2.0422301 0.82552916 -0.42817539 1
20.790022 8.4039354 1.9618758 59
2.4687383 0.99793625 -0.42174733 1
20.787495 8.402914 2.7530284 54
3.2299297 1.3056321 -0.42776141 1
30.734692 12.423862 5.2505665 5
3.4505341 1.3948069 -0.32561386 3
32.908661 13.302644 6.8996534 12
8.4548426 3.4176948 -0.47793195 23
31.733107 12.82745 7.9020805 16
8.4558868 3.4181168 -0.15920085 23
33.363777 13.486616 9.6425619 29
1.5047015 0.60244703 -0.43429837 7
3.4492459 1.3809968 0.064853139 19
1.7331417 0.69390905 -0.43100622 3
3.4487519 1.3807989 0.19468975 18
2.0467789 0.81948203 -0.42855701 2
20.908409 8.3712339 1.970417 51
2.4867048 0.99561799 -0.42425027 1
20.894489 8.3656616 2.7635093 60
21.025333 8.4180479 -2.7808146 4
30.629013 12.263135 5.2255368 5
33.021854 13.221171 6.9141545 12
8.4846716 3.3970625 -0.47897866 19
31.851452 12.752571 7.9209766 16
8.4894524 3.3989766 -0.1596197 19
33.489025 13.408216 9.6658564 14
1.5121831 0.59932631 -0.43585128 7
3.4726357 1.3763161 0.065202191 18
1.7246834 0.68354696 -0.42830682 3
3.4572644 1.370224 0.1948991 17
2.047802 0.81160909 -0.42817539 2
21.013443 8.3282967 1.9775639 61
2.5011835 0.99129862 -0.42612749 1
21.001072 8.3233938 2.7737463 55
21.157934 8.3855629 -2.7944641 4
30.655106 12.149595 5.2227211 5
33.15176 13.139098 6.9317093 12
8.5224724 3.3777273 -0.48044407 19
31.989979 12.678647 7.9443712 16
8.5049829 3.3707957 -0.15968952 19
33.381172 13.230021 9.6213388 7
1.492685 0.58557796 -0.42963961 7
3.4941728 1.3707587 0.06551633 20
1.7379438 0.68179262 -0.43100622 3
3.47876 1.3647121 0.19584115 18
2.0433118 0.80158806 -0.42664891 1
21.12956 8.289094 1.9857564 53
2.4935949 0.9782334 -0.42425027 1
21.115005 8.2833843 2.7849581 55
23.91839 9.3831472 -3.1547098 4
30.666067 12.030251 5.2174025 5
33.281494 13.056278 6.9492636 12
8.5565224 3.3567104 -0.48170015 19
32.119305 12.600353 7.965517 16
8.5353136 3.3483901 -0.16003856 19
33.256302 13.046395 9.5721636 7
1.5019233 0.58316088 -0.43171015 7
3.5045288 1.3607247 0.065621048 21
1.7584791 0.68277538 -0.43550524 3
3.502121 1.3597897 0.19688787 21
2.0460975 0.7944507 -0.42664891 1
21.221516 8.2398062 1.991683 27
2.4969943 0.96952313 -0.42425027 1
21.293682 8.267827 2.8047011 46
21.970964 8.5307999 -2.8939095 4
30.564241 11.867364 5.1929984 5
33.396412 12.967027 6.9637651 12
8.592391 3.33622 -0.48306087 28
32.232124 12.514962 7.9826131 16
8.5805035 3.331604 -0.16066685 19
33.134159 12.865201 9.5240231 7
1.5075564 0.57930052 -0.43274546 7
11.001895 4.2276387 0.20572896 6
1.7572137 0.67523497 -0.43460545 3
2.0781798 0.79857093 -0.43275481 1
23.946867 9.2019329 2.2444346 78
2.4966755 0.95938396 -0.42362455 1
21.528095 8.2724848 2.8317561 14
21.976519 8.4447985 -2.8907409 8
30.95767 11.895936 5.2527566 5
11.037951 4.2414937 -1.0345386 2
33.496449 12.871499 6.9752135 12
8.6188993 3.3119378 -0.48389825 33
32.366566 12.437325 8.0051079 16
8.6294127 3.3159778 -0.16136494 19
32.991322 12.677397 9.4701891 7
1.5113751 0.57472128 -0.43326309 6
11.003501 4.1842337 0.20548463 25
1.7377021 0.66078526 -0.42920661 4
22.021261 8.3738899 1.2347099 100
2.0662744 0.78572941 -0.42970186 1
22.015989 8.3718843 2.0607104 100
2.5000091 0.95066315 -0.42362455 1
21.562407 8.1994038 2.8324873 9
21.998442 8.3652124 -2.889766 8
31.015623 11.794121 5.2555723 5
34.161423 12.990355 7.1042004 13
8.6416092 3.2860913 -0.48452628 33
32.457142 12.342278 8.0168056 16
8.6671028 3.2957859 -0.16185361 19
32.928837 12.521646 9.4396486 7
1.5313523 0.57651275 -0.43843946 7
20.120123 7.5746827 0.37526163 40
1.7654166 0.66463166 -0.43550524 3
22.028347 8.2930775 1.2335585 100
2.0688686 0.77887309 -0.42970186 1
22.041765 8.2981291 2.0605361 100
2.495753 0.9395836 -0.42237306 1
21.496588 8.0928841 2.8203003 9
25.160168 9.4721231 -3.3009531 4
30.884483 11.627173 5.2267885 16
34.314556 12.918503 7.1270976 13
8.6748886 3.265861 -0.48578236 16
32.583611 12.266849 8.0379515 17
8.6873417 3.2705495 -0.16202815 11
33.273918 12.526731 9.5266113 7
1.493528 0.55632842 -0.42705142 6
20.127703 7.4974241 0.37491259 69
1.7604213 0.65574425 -0.43370563 3
22.070263 8.221014 1.2342912 9
2.0384591 0.75931126 -0.42283273 1
22.050058 8.2134886 2.0586185 20
2.5101244 0.93500328 -0.42425027 1
33.885925 12.622264 4.4399438 8
25.237722 9.4008703 -3.3068027 4
34.44775 12.831538 7.1454153 13
8.7199249 3.2481093 -0.48766643 19
32.704754 12.182285 8.0572968 17
8.7118225 3.2450912 -0.16227247 23
33.292095 12.401066 9.5193644 7
1.5117749 0.55712378 -0.43171015 7
20.108719 7.4105244 0.37407488 67
1.7517283 0.6455521 -0.43100622 3
25.601429 9.4347143 1.4299229 26
2.079782 0.76644742 -0.43084672 1
25.249239 9.304924 2.3542509 73
2.5244939 0.93033397 -0.42612749 1
21.384926 7.880836 2.7983639 13
24.599834 9.0656042 -3.2190568 4
31.068699 11.449529 5.2443089 5
32.508339 11.980069 6.7344127 23
8.7555723 3.2266295 -0.48902717 19
32.871418 12.113873 8.0878906 8
8.7531185 3.2257252 -0.16283095 16
32.994396 12.159193 9.4220486 7
1.5137105 0.55184329 -0.43171015 7
20.079981 7.3204241 0.37306264 67
1.7594637 0.64143592 -0.43235594 2
24.61154 8.9724646 1.3728768 60
2.0750668 0.75649321 -0.42932025 1
24.57774 8.9601421 2.2887099 40
2.5165908 0.91745663 -0.42425027 1
21.471985 7.827898 2.8061635 46
9.0472164 3.2982831 -1.1823764 2
9.8966112 3.6079414 -0.92158484 2
32.61636 11.890728 6.7481508 47
8.7799177 3.2008357 -0.48975989 16
33.014202 12.035767 8.1126347 17
8.7906275 3.2047403 -0.16331962 16
33.132835 12.079016 9.4494829 14
1.5283486 0.55114347 -0.43533364 7
9.0049219 3.2472982 0.16708934 52
1.752526 0.63198495 -0.4301064 3
9.0164967 3.2514725 0.50232053 40
2.0850821 0.75190926 -0.43084672 1
9.0132551 3.2503035 0.83826393 13
2.5420768 0.91670781 -0.42800468 1
21.375931 7.7084541 2.7900767 32
21.693386 7.8229332 -2.8315122 4
32.73893 11.806108 6.7649422 12
8.8098249 3.176944 -0.49080661 16
33.116508 11.942268 8.1274815 17
8.8318586 3.1848893 -0.1638781 16
33.296555 12.007195 9.4841652 14
1.539361 0.54905015 -0.43792182 7
20.115528 7.1746879 0.37278339 100
1.7583923 0.62717301 -0.43100622 3
21.738935 7.753715 1.2095886 76
2.0729008 0.73935002 -0.42779377 1
21.736601 7.752882 2.0190499 84
2.5340979 0.90384704 -0.42612749 1
21.455061 7.6524639 2.7969015 32
21.720562 7.7471614 -2.8315122 4
32.861408 11.720812 5.5258908 6
21.826677 7.7850099 -2.0274169 8
34.978584 12.475954 7.2186861 13
8.8584852 3.1595919 -0.49290004 16
34.976955 12.475374 8.5733347 18
8.8542233 3.1580718 -0.16408752 20
33.420147 11.9201 9.5074587 14
1.5194062 0.53596181 -0.43171015 7
20.136679 7.1030974 0.3727136 100
1.7789484 0.62751383 -0.43550524 3
21.724432 7.663168 1.2072859 75
2.0828748 0.73472208 -0.42932025 1
21.725952 7.6637044 2.0155637 100
2.5372374 0.89499587 -0.42612749 1
21.603325 7.6204481 2.8127444 27
3.2854276 1.1589156 -0.42776141 1
32.989674 11.636918 5.540596 6
35.121899 12.389047 7.2392931 13
8.8807611 3.1326373 -0.49352807 14
35.095638 12.379785 8.5917807 18
8.872736 3.1298063 -0.16422714 40
33.528961 11.827147 9.5266113 14
1.5358603 0.53574502 -0.43585128 7
20.142469 7.0261774 0.37236455 100
1.788488 0.62386763 -0.43730485 3
21.760479 7.5905781 1.2078092 33
2.0891342 0.72874027 -0.43008348 2
21.752571 7.5878201 2.0155637 37
2.551537 0.89003748 -0.42800468 1
21.759123 7.5901051 2.8295624 14
3.289453 1.1474403 -0.42776141 1
33.123352 11.554222 5.5562391 18
4.8704839 1.6989419 -0.45129243 2
35.229809 12.289005 7.2526498 13
8.9727316 3.1299047 -0.49802896 2
35.23064 12.289294 8.6142759 18
8.9194813 3.1113296 -0.16489033 36
33.62841 11.730398 9.5431757 7
1.5284977 0.52749783 -0.43326309 6
20.152426 6.9547777 0.3721202 100
1.77581 0.61284751 -0.43370563 3
25.686119 8.8645029 1.4240614 52
2.0952511 0.7230894 -0.43084672 1
25.670576 8.8591394 2.3758655 60
2.5507398 0.88028252 -0.42737895 1
34.850174 12.027098 4.5267148 8
4.9276628 1.7005793 -0.6400578 4
33.251118 11.475249 5.5712571 18
4.9081087 1.6938311 -0.45425573 14
35.379864 12.209899 7.2751656 27
4.9352088 1.7031835 -0.27361238 36
35.37804 12.20927 8.6403704 18
8.9770069 3.0980432 -0.16576296 28
33.177711 11.449918 9.4044485 7
1.5211879 0.51903993 -0.43067488 7
20.170902 6.882453 0.37201551 100
1.7631838 0.60161066 -0.4301064 3
25.732027 8.7799482 1.4248987 100
2.1051946 0.71830714 -0.4323732 1
25.727743 8.7784863 2.3783059 100
2.5351017 0.86499441 -0.42425027 1
34.940788 11.922042 4.533052 8
4.9053879 1.6737527 -0.63640171 11
33.397533 11.395473 5.5890903 12
4.8857069 1.6670374 -0.45164105 14
35.505882 12.114855 7.2923384 13
4.9184408 1.6782064 -0.2723563 36
35.508972 12.11591 8.6619654 18
8.9991217 3.0705633 -0.16597238 16
33.307068 11.364604 9.4298134 14
1.5412956 0.51990145 -0.43585128 7
20.196699 6.8126407 0.3720504 100
1.7763522 0.59918946 -0.43280584 3
22.933241 7.7357159 1.2684143 68
2.1002481 0.70844424 -0.43084672 1
22.941513 7.7385063 2.1182332 88
2.5493362 0.85992819 -0.42612749 1
21.552101 7.2698374 2.792758 27
4.888629 1.6490057 -0.63347685 17
33.523209 11.307867 5.6034827 12
4.8952718 1.6512464 -0.45198968 17
35.672592 12.032885 7.3179064 13
4.905344 1.654644 -0.27130958 36
35.661839 12.029258 8.6889591 18
9.0249434 3.044245 -0.16625163 16
33.452705 11.284084 9.459836 14
1.5394357 0.51329601 -0.434816 7
20.216562 6.7408342 0.37198058 100
1.7858276 0.59545082 -0.43460545 3
22.967682 7.658144 1.2688329 100
2.0952585 0.69862473 -0.42932025 2
22.964605 7.6571183 2.1178846 100
2.5523224 0.85102415 -0.42612749 1
21.824041 7.2768178 2.8246877 9
4.8792896 1.6269078 -0.63152695 19
33.62619 11.212025 5.61412 12
4.8707643 1.6240653 -0.44920069 17
35.822399 11.944309 7.3400402 13
4.8940377 1.6318252 -0.27036756 40
35.788651 11.933057 8.7096548 18
9.0639706 3.0222113 -0.1667752 16
33.583523 11.197798 9.4857178 14
1.5338789 0.50550061 -0.43274546 7
20.222876 6.6645913 0.37166646 100
1.7804919 0.58677369 -0.43280584 3
22.984789 7.5747995 1.2683096 19
2.0902259 0.68884867 -0.42779377 1
22.953348 7.5644379 2.1143982 10
2.5702863 0.84705597 -0.42863044 1
21.353462 7.0371838 2.7605844 4
4.8755121 1.6067594 -0.63030827 19
33.818966 11.145278 5.6397753 6
4.8555889 1.6001935 -0.44728327 19
35.945919 11.846231 7.3568316 27
4.8845286 1.6097308 -0.26953018 44
35.937435 11.843435 8.7357492 18
9.0896587 2.9955611 -0.16705443 12
33.710476 11.109525 9.5105648 14
1.535634 0.50014329 -0.43274546 7
20.232706 6.5896249 0.37142211 100
1.7899412 0.58296901 -0.43460545 3
24.133444 7.8600626 1.3301706 22
2.1150186 0.68884397 -0.4323732 2
24.09923 7.8489194 2.2174165 37
2.5582013 0.83318496 -0.42612749 1
20.245392 6.5937562 2.6143413 4
4.8603287 1.5829687 -0.62762713 14
32.758877 10.669294 5.4567471 6
4.8573561 1.5820006 -0.44693464 19
36.087852 11.753514 7.377439 13
4.8692279 1.5858672 -0.26837879 46
36.097145 11.756541 8.7645426 18
9.1418905 2.9774377 -0.16782235 12
1.5410485 0.49596357 -0.43378073 7
20.236549 6.5128331 0.37107307 60
1.7882551 0.57552332 -0.43370563 3
20.257524 6.5195832 1.1152792 89
2.1248856 0.68386286 -0.43389964 1
20.257444 6.5195575 1.8618209 89
2.5422902 0.81819832 -0.42299879 1
20.245609 6.5157485 2.6114163 100
4.8299212 1.5544385 -0.62299609 12
32.929428 10.597847 5.4789605 18
4.8400898 1.5577109 -0.4448429 19
32.874989 10.580327 6.7130423 23
4.8462157 1.5596826 -0.26680872 44
36.197327 11.649571 8.7789402 18
9.1693592 2.9510221 -0.16813648 32
32.689354 10.520583 9.2015343 6
1.5501344 0.49292296 -0.43585128 7
9.372077 2.980201 0.17166187 50
1.7976816 0.57163984 -0.43550524 3
9.3530455 2.974149 0.51435781 21
2.1235178 0.6752516 -0.43313643 2
9.3587217 2.9759541 0.85918128 5
2.5639558 0.81530517 -0.42612749 1
20.25688 6.4414291 2.6099539 100
4.8126168 1.5303508 -0.62007123 12
33.084816 10.52055 5.4986715 18
4.830308 1.5359763 -0.44344842 19
32.982815 10.488114 6.7275434 47
4.8364038 1.5379146 -0.26597133 44
35.948059 11.431025 8.7087555 9
9.2100954 2.9286928 -0.16869496 24
32.85659 10.447976 9.238287 6
1.5481595 0.48635098 -0.434816 7
20.291063 6.3743944 0.37124759 100
1.7810744 0.55952072 -0.43100622 3
20.27968 6.3708181 1.1140232 100
2.1183701 0.66548139 -0.43160996 1
20.287258 6.373199 1.8604264 100
2.5743244 0.8087185 -0.42737895 1
20.275454 6.3694906 2.6094663 100
4.7970972 1.5069979 -0.6173901 10
33.198608 10.429272 5.5114989 12
4.7976241 1.5071633 -0.43996218 21
33.118496 10.404104 6.7477694 11
4.8207827 1.5144386 -0.26481995 46
34.582218 10.863931 8.3686295 8
9.2240782 2.8977244 -0.16876477 20
32.972111 10.358118 9.2605457 13
1.5387774 0.47750863 -0.43171015 7
20.296001 6.2981925 0.37093344 100
1.8016286 0.55907577 -0.43550524 3
20.301794 6.2999902 1.1140232 100
2.1281803 0.66041028 -0.43313643 1
20.297964 6.2988014 1.8593806 100
20.330286 6.3088312 -3.3714757 6
20.297564 6.298677 2.6094663 100
4.8061204 1.4914204 -0.61787754 6
33.336689 10.344937 5.5283942 12
4.7876329 1.4856833 -0.4385677 19
4.8126869 1.4934582 -0.26408723 42
36.65979 11.376153 8.861722 9
9.2761536 2.8785472 -0.16953267 28
33.105854 10.273306 9.2879801 13
1.5458105 0.47437233 -0.43326309 6
20.306129 6.2314663 0.37075892 100
1.7959241 0.55112624 -0.43370563 3
20.315758 6.2344213 1.1137091 100
2.1152296 0.64911348 -0.43008348 1
20.311939 6.2332492 1.8588576 100
2.5909619 0.79510438 -0.42925617 1
20.30966 6.2325501 2.6084914 100
4.7918048 1.4704905 -0.61544019 6
33.46722 10.270291 5.544663 12
4.780848 1.4671282 -0.43752182 27
36.088406 11.07467 7.3377509 13
4.7944427 1.4713 -0.26283118 48
36.617104 11.236915 8.8428259 19
9.2679453 2.8441112 -0.16921854 72
33.230309 10.197588 9.3138618 13
1.5437593 0.46785295 -0.43222782 7
20.3335 6.1622868 0.37086365 100
1.8015668 0.54598433 -0.43460545 3
20.320194 6.1582546 1.1127671 100
2.1325133 0.64628124 -0.43313643 1
20.32976 6.1611533 1.8585091 100
2.6126263 0.79178464 -0.43238485 1
20.316093 6.157012 2.6065416 100
4.7893095 1.451452 -0.61446524 8
33.599281 10.182626 5.5606194 18
4.7973809 1.4538982 -0.4385677 44
35.931442 10.889412 7.2980623 13
4.7938151 1.4528174 -0.26251715 68
36.812763 11.156506 8.8806181 9
9.2854719 2.8140626 -0.16935815 76
33.389572 10.119071 9.3485441 13
1.5750774 0.47104803 -0.44051 7
20.350201 6.0860004 0.37075892 100
1.7998219 0.53826088 -0.43370563 3
20.333061 6.0808749 1.1122438 100
2.1386297 0.63958591 -0.43389964 1
20.356022 6.0877414 1.8588576 100
2.5852299 0.7731477 -0.42737895 1
20.338524 6.0825086 2.6065416 100
4.8098121 1.4384388 -0.61641514 6
33.732899 10.088276 5.5765758 12
4.8217659 1.4420137 -0.44031081 34
35.937256 10.747519 7.2911935 13
4.8067617 1.4375266 -0.26293585 44
37.116657 11.100234 8.9440536 19
9.295723 2.7800107 -0.16935815 76
33.47456 10.011016 9.3620024 7
1.5452149 0.45624709 -0.43171015 7
20.367485 6.0137954 0.37068912 100
1.8016897 0.53197503 -0.43370563 3
20.354164 6.0098619 1.1122438 95
2.1220202 0.62655729 -0.43008348 2
20.35804 6.0110064 1.8571146 100
2.6030691 0.76859391 -0.4298819 1
20.355825 6.0103526 2.6060541 100
4.8262267 1.4250134 -0.61787754 8
33.877789 10.002909 5.5947223 18
4.8267703 1.4251739 -0.44031081 29
36.068695 10.649806 7.3102741 13
4.8500605 1.4320507 -0.26502928 50
37.250496 10.99875 8.9669991 9
9.3111248 2.7492445 -0.16946286 40
33.58897 9.9176302 9.3842611 7
1.5597807 0.45463464 -0.43533364 7
20.369156 5.9370675 0.37034008 100
1.8110193 0.52786398 -0.43550524 3
20.365431 5.9359818 1.1117203 100
2.1355033 0.62244248 -0.4323732 1
20.365509 5.9360046 1.8558943 100
2.6057363 0.75950283 -0.4298819 1
20.37668 5.939261 2.6060541 100
4.8502293 1.413713 -0.62031496 6
33.995945 9.9089136 5.6084886 12
4.8412795 1.4111043 -0.44118237 23
36.181046 10.545813 7.3255391 40
4.8742042 1.420701 -0.266076 50
37.417755 10.906281 8.9980421 19
9.3225842 2.7172854 -0.16949777 52
33.584435 9.78897 9.3733902 7
1.5502189 0.44598255 -0.43222782 6
20.397442 5.8681412 0.37047967 77
1.8109781 0.52100033 -0.43505535 3
20.405222 5.870379 1.1127671 63
2.1376631 0.61498439 -0.4323732 1
20.393764 5.8670826 1.8565916 82
2.6045747 0.7493102 -0.42925617 1
20.39538 5.867548 2.6058104 89
4.9028273 1.4104947 -0.6264084 4
34.138535 9.8213158 5.6263218 6
4.8614936 1.3986032 -0.44257686 21
36.289333 10.44008 7.3400402 13
4.8791337 1.4036782 -0.266076 52
37.567963 10.807929 9.0250359 19
9.3185606 2.6808569 -0.16925344 48
35.118492 10.10324 9.7916422 7
1.555406 0.44189528 -0.43326309 6
20.459108 5.8124914 0.37124759 100
1.8108212 0.51445949 -0.43460545 3
20.439945 5.8070469 1.1136044 63
2.1321366 0.60574615 -0.43084672 2
20.453356 5.8108568 1.8602521 89
2.6336477 0.74822682 -0.43363634 1
20.433821 5.8053074 2.6082478 100
4.9093876 1.394771 -0.62665218 6
34.23172 9.7253294 5.6363339 12
4.8967695 1.3911862 -0.44536585 23
36.455948 10.35724 7.3667536 13
4.8952889 1.3907657 -0.26670402 52
37.706696 10.712581 9.0497808 19
9.3350935 2.6521268 -0.16939306 44
1.5755404 0.44167784 -0.43843946 7
20.508156 5.7491369 0.37177116 95
1.812606 0.50813544 -0.43460545 3
20.48317 5.7421322 1.1148605 70
2.1493611 0.60253942 -0.43389964 1
20.498453 5.746417 1.8625182 91
2.5982025 0.72836494 -0.42737895 1
20.482632 5.741982 2.6119037 100
4.9065804 1.3754822 -0.62567723 10
34.381485 9.6383047 5.6554189 12
4.9111876 1.3767738 -0.44623742 19
36.63744 10.270726 7.3961382 13
4.9231915 1.3801389 -0.2679601 50
37.860199 10.613507 9.0776749 20
9.3269644 2.6146669 -0.16907892 52
1.5640389 0.43257073 -0.434816 7
20.56279 5.6871099 0.37239945 90
1.8218817 0.503883 -0.43640503 3
20.537737 5.680181 1.1167446 84
2.1287446 0.58875304 -0.42932025 1
20.535671 5.6796093 1.864087 84
2.6426148 0.73087555 -0.43426207 1
20.535076 5.6794448 2.6160474 76
4.9343114 1.3646966 -0.62860209 6
34.506306 9.5435076 5.6704364 6
4.9274855 1.3628088 -0.44728327 19
36.79417 10.176269 7.4205618 13
4.9568539 1.3709313 -0.26953018 48
37.953362 10.49687 9.0911722 10
9.3283253 2.5799618 -0.16893929 56
1.5655394 0.42710856 -0.434816 7
20.594091 5.6184554 0.37260887 90
1.8104692 0.49393004 -0.43325573 2
20.592123 5.6179185 1.1186287 78
2.1421511 0.58441907 -0.43160996 1
20.580359 5.6147089 1.866353 91
2.610847 0.71228814 -0.42863044 1
20.587334 5.6166115 2.6201909 100
4.9601107 1.3532115 -0.63128322 4
38.167915 10.412925 6.266139 15
4.9399014 1.347698 -0.44798052 19
36.924168 10.073607 7.4396429 14
4.9693165 1.355723 -0.26994887 48
38.177776 10.415615 9.1361618 20
9.3102655 2.5400157 -0.16845062 48
37.230015 10.157048 10.340339 8
1.5744827 0.42364901 -0.43688655 7
20.632889 5.5517302 0.37295792 16
1.8215913 0.49013901 -0.43550524 3
20.636681 5.5527506 1.1199895 65
2.1688237 0.58356953 -0.43657097 2
20.626768 5.5500836 1.8687935 91
2.6095023 0.70214373 -0.42800468 1
20.618315 5.5478086 2.6216533 59
4.9820566 1.3405313 -0.63347685 2
38.345188 10.317612 6.2892914 15
4.9561191 1.3335524 -0.44902638 19
37.076649 9.976284 7.4633031 14
4.9740186 1.3383685 -0.26994887 48
38.345627 10.31773 9.167655 20
9.3248682 2.5090599 -0.16855533 44
37.194355 10.007956 10.320668 8
1.5703502 0.41666415 -0.43533364 6
20.679201 5.4868541 0.37344658 61
1.819524 0.48277795 -0.43460545 3
10.277777 2.7270231 0.55727327 21
2.1537693 0.57146388 -0.43313643 1
20.686457 5.4887791 1.8724539 92
2.6577609 0.70518899 -0.43551356 1
20.662497 5.4824219 2.6248219 89
20.808319 5.5211129 -2.6433461 4
38.510799 10.218148 6.3105664 23
4.978076 1.3208429 -0.4505952 17
37.0695 9.8357248 7.4549074 14
4.9941039 1.3250955 -0.27078623 44
38.47747 10.209305 9.1906004 21
9.3297043 2.4754691 -0.16848554 44
37.047939 9.8300047 10.270457 16
1.5922809 0.41683608 -0.44102764 7
20.722431 5.4248328 0.37390035 45
1.8230002 0.47723505 -0.43505535 3
20.720369 5.424293 1.1225016 79
2.1518538 0.56332421 -0.4323732 1
20.731527 5.4272141 1.8748944 99
2.6256871 0.68736684 -0.4298819 1
20.707449 5.4209108 2.6282341 93
38.651489 10.118401 6.3280869 15
4.997848 1.3083643 -0.45198968 17
37.405792 9.7922955 7.5159664 14
5.0177917 1.3135853 -0.27183294 44
38.614799 10.108796 9.2153444 10
9.3185167 2.4394529 -0.16813648 44
36.998104 9.6855679 10.247682 24
1.5825027 0.40837914 -0.43792182 7
9.5070477 2.4533796 0.17138264 44
1.8340895 0.47330338 -0.43730485 3
9.4915972 2.4493923 0.51372975 59
2.1309955 0.54992265 -0.42779377 1
20.756134 5.356308 1.8754172 21
2.6357212 0.68017167 -0.43113339 1
20.758923 5.3570275 2.6323779 100
20.845417 5.3793483 -2.6433461 4
38.801334 10.013036 6.346859 15
5.0139599 1.2938976 -0.45303556 17
38.861675 10.028607 7.8014164 15
5.0416856 1.3010526 -0.27287969 48
38.329075 9.8911638 9.1388617 10
9.3076124 2.4019136 -0.16778743 48
36.926933 9.5293293 10.218694 16
1.5689406 0.3990432 -0.43378073 7
20.823753 5.2962976 0.37505221 86
1.8395077 0.46785903 -0.43820465 3
20.817738 5.2947683 1.1257464 66
2.1443181 0.54538429 -0.43008348 1
20.821047 5.2956095 1.8796008 87
2.6265929 0.6680457 -0.42925617 1
20.81982 5.2952976 2.6377401 100
20.864067 5.3065515 -2.6433461 4
38.895397 9.8926268 6.3565578 7
5.0338931 1.2803166 -0.45443004 17
38.896446 9.8928938 7.8014164 15
5.0752311 1.2908305 -0.27444977 46
38.514458 9.7957382 9.1748533 10
9.3236923 2.371381 -0.16792706 60
36.79147 9.3575153 10.172106 16
1.5834413 0.39685169 -0.43740419 6
20.865389 5.2294106 0.37547109 92
1.8260074 0.45764509 -0.43460545 3
20.882589 5.2337217 1.1282586 81
2.1690612 0.54362327 -0.43466288 1
20.85873 5.2277417 1.8813438 87
2.6404054 0.66175449 -0.43113339 1
20.847805 5.2250032 2.6389587 100
20.936378 5.2472024 -2.6501708 4
38.916283 9.7534351 6.3543677 7
5.0653882 1.2695184 -0.45687041 17
38.904079 9.7503777 7.7960739 15
5.0816431 1.2735924 -0.27455443 48
38.680737 9.6944008 9.2063465 10
9.3222141 2.33639 -0.16775253 64
35.697701 8.9467745 9.8610058 7
1.5884994 0.39252546 -0.43843946 6
20.911736 5.1673856 0.37599465 92
1.8312987 0.45252228 -0.43550524 3
20.909525 5.1668391 1.1287819 81
2.1727579 0.53689837 -0.4350445 2
20.912703 5.167624 1.8846558 87
2.6195731 0.64730847 -0.42737895 1
20.89007 5.1620317 2.6421273 96
20.945955 5.1758413 -2.6491957 4
35.657642 8.8111668 5.8174849 6
5.0850439 1.2565376 -0.45826489 18
39.065804 9.6533384 7.8220239 16
5.1052279 1.2615252 -0.27560115 48
38.811047 9.5903864 9.2297421 10
9.3260288 2.3045042 -0.16768272 68
1.5785977 0.3842369 -0.43533364 6
20.960733 5.1019254 0.37655312 74
1.8366541 0.44704884 -0.43640503 3
20.958483 5.1013775 1.1304567 74
2.1517279 0.5237391 -0.4304651 2
20.949972 5.0993056 1.8863989 95
2.6218166 0.63816053 -0.42737895 1
20.938822 5.0965915 2.6460271 61
21.002472 5.1120844 -2.6540706 4
35.799503 8.7137403 5.8356314 6
5.1145654 1.2449054 -0.46053094 20
39.225163 9.5475588 7.8472109 16
5.1290064 1.2484205 -0.27664787 48
38.98819 9.4898787 9.2639341 10
9.3184719 2.268153 -0.16740349 68
35.506248 8.6423607 9.7916422 7
1.5930797 0.3818765 -0.4389571 7
21.011473 5.0366521 0.37714651 86
1.8438885 0.44199777 -0.43775475 3
20.99947 5.0337744 1.1317127 74
2.1554523 0.51668262 -0.43084672 2
20.996706 5.033112 1.8890135 95
2.6586056 0.63729328 -0.43301061 1
20.993162 5.0322623 2.6506581 87
21.070377 5.0507722 -2.6604078 4
39.352741 9.4332294 6.4094329 8
5.1285672 1.2293668 -0.46140251 18
39.365162 9.4362078 7.8685813 16
5.1527553 1.235165 -0.27769458 44
39.15752 9.3864336 9.2963276 11
9.3146648 2.2328148 -0.16719405 64
1.5737209 0.37143189 -0.43326309 7
21.056173 4.9697084 0.37763518 88
1.8473167 0.43600637 -0.43820465 3
21.053846 4.9691591 1.1337014 82
2.1534212 0.50825357 -0.43008348 2
21.037416 4.9652815 1.8911053 95
2.6569688 0.6271016 -0.43238485 1
21.051172 4.9685278 2.6557767 100
3.4872766 0.82307202 -0.43994832 1
36.078636 8.5153322 5.8712983 6
5.1638532 1.21878 -0.4641915 18
39.512508 9.325799 7.8914785 16
5.1784182 1.2222177 -0.27884597 46
39.353157 9.2881889 9.3350191 11
9.3165636 2.1989088 -0.16708934 60
35.798859 8.4492989 9.8558292 7
1.6013521 0.37205711 -0.44051 7
21.10261 4.9029665 0.37815875 94
1.8412347 0.42779127 -0.43640503 3
21.139154 4.9114571 1.137365 55
2.1685684 0.50384378 -0.43275481 1
21.095375 4.9012856 1.8947659 75
2.6552932 0.61692911 -0.43175912 1
21.136063 4.9107389 2.6643076 70
3.3934488 0.7884317 -0.42776141 1
38.740345 9.0009069 6.2993031 7
5.1836014 1.2043546 -0.46558598 15
38.75312 9.0038748 7.7334886 15
5.1943254 1.2068462 -0.27947402 48
38.720978 8.9964066 9.1775532 10
9.3222351 2.1659219 -0.16705443 64
1.5875751 0.36302003 -0.43636891 7
21.144938 4.8350697 0.37861252 88
1.8408171 0.42092717 -0.43595514 3
21.134752 4.8327408 1.1362137 48
2.1894524 0.50064725 -0.43657097 1
21.143431 4.8347254 1.8975549 97
2.6381738 0.60325336 -0.42863044 1
21.122114 4.8298507 2.6604078 83
3.3961804 0.77658159 -0.42776141 1
38.505783 8.8048573 6.2561274 7
5.2052541 1.1902502 -0.46715477 13
38.554649 8.8160305 7.6876945 15
5.2004533 1.1891525 -0.27957869 46
38.546974 8.8142757 9.1289635 10
9.3336372 2.1342597 -0.16712424 64
35.811775 8.1888361 9.8434057 7
1.600141 0.36002046 -0.43947473 6
25.545416 5.747539 0.45704362 28
1.8384727 0.41364345 -0.43505535 3
21.159286 4.7606907 1.1366323 27
2.1796944 0.49041593 -0.43428126 1
21.183504 4.7661395 1.8996465 37
2.6749532 0.60184562 -0.43426207 1
21.160147 4.7608843 2.6630888 35
3.3988705 0.76472193 -0.42776141 1
38.605663 8.6860027 6.2673903 7
4.0022788 0.90048462 -0.35890734 1
38.623497 8.6900148 7.6953268 15
5.2338009 1.1775684 -0.28114876 44
38.588917 8.6822348 9.1316633 10
9.3195696 2.0968378 -0.1667403 60
36.192589 8.1430779 9.9402046 7
1.5976156 0.35359779 -0.43843946 6
25.491129 5.6419125 0.45571724 18
1.8513216 0.40975016 -0.43775475 3
25.516624 5.6475554 1.369632 47
2.1718087 0.48068309 -0.4323732 2
25.510824 5.6462717 2.2859209 68
2.6654654 0.58994341 -0.43238485 1
3.8395495 0.8498016 -0.48284635 1
40.228855 8.9037914 6.5258203 8
3.9334214 0.87057811 -0.35245782 14
39.337917 8.7066011 7.8315644 16
5.2398295 1.1597234 -0.28125343 14
39.34201 8.7075071 9.3026257 11
9.3190231 2.0625651 -0.16660067 64
36.11705 7.9937315 9.9117346 7
1.5950648 0.34719718 -0.43740419 7
22.683313 4.9374685 0.40520996 49
1.8546448 0.40369985 -0.43820465 3
22.700563 4.9412231 1.2175437 51
2.1753917 0.4735167 -0.43275481 2
22.680258 4.9368033 2.0307288 57
2.6675086 0.58063561 -0.43238485 1
3.8774066 0.84399366 -0.48723364 2
40.371639 8.7876797 6.5439668 8
3.9247553 0.85430002 -0.35141197 21
39.283661 8.5508604 7.8147731 16
3.979234 0.86615837 -0.21342602 9
39.292191 8.5527163 9.2837296 10
9.3730602 2.0402305 -0.16743839 4
36.216465 7.8832245 9.9314041 7
1.6057124 0.3436487 -0.43999237 7
5.6980786 1.2194819 0.10171262 16
1.8541371 0.39681563 -0.43775475 2
5.700902 1.2200861 0.30553731 3
2.180871 0.46674201 -0.43351805 2
5.7123294 1.2225319 0.51108128 2
2.6926987 0.57628155 -0.43613929 1
3.8395653 0.82172972 -0.48211512 2
40.558533 8.6801891 6.5693088 8
3.9179723 0.8385101 -0.3505404 26
39.190403 8.3873873 7.7903495 15
3.9373136 0.8426494 -0.21101858 17
39.222717 8.3943024 9.260335 10
3.9988234 0.85581356 -0.07138034 1
36.561127 7.8246784 10.018368 7
1.5974498 0.33605313 -0.43740419 5
5.6905599 1.1971146 0.10150319 56
1.8440689 0.38793403 -0.43505535 3
5.6914444 1.1973007 0.30480462 60
2.1997776 0.46276397 -0.43695259 2
5.6951151 1.1980729 0.50916386 55
2.6753633 0.56281215 -0.43301061 1
3.83464 0.80668747 -0.48114017 2
40.774158 8.5775995 6.5993443 8
3.9306238 0.8268795 -0.35141197 32
39.081116 8.2214365 7.7628732 15
3.9343674 0.827667 -0.21070457 22
39.091591 8.2236395 9.2225437 10
3.9861314 0.83855653 -0.071101107 18
36.667618 7.7137122 10.040109 7
1.6099643 0.33282152 -0.44051 5
5.6986203 1.1780531 0.10157301 11
1.8587705 0.38425624 -0.43820465 3
5.6838536 1.1750005 0.30417657 61
2.2033021 0.45547995 -0.43733421 1
5.6914582 1.1765726 0.5084666 70
2.6850493 0.55506963 -0.43426207 1
3.8452084 0.79490471 -0.48211512 2
37.343079 7.7197866 6.0396218 7
3.929584 0.81234729 -0.35106334 34
39.16341 8.096096 7.7735586 15
3.9411442 0.81473714 -0.2109139 30
38.959755 8.0539951 9.1847515 10
3.9635766 0.81937444 -0.070647344 31
36.732155 7.593493 10.050461 7
1.5921842 0.32335478 -0.43533364 5
4.0036464 0.81309581 0.071310535 18
1.8601005 0.3777656 -0.43820465 3
5.6683478 1.151178 0.30312985 69
2.1971829 0.44622326 -0.43580773 2
5.6701474 1.1515435 0.50620055 60
2.6869705 0.54569364 -0.43426207 1
3.8401783 0.77989721 -0.48114017 2
40.914352 8.309247 6.6124849 8
3.9089653 0.79386711 -0.34897161 35
39.30687 7.9827852 7.7964554 15
3.9400496 0.80018002 -0.21070457 34
38.892143 7.8985591 9.1622562 10
3.9507349 0.80235004 -0.070368104 35
40.923485 8.3111019 11.189265 10
1.6046704 0.32006231 -0.43843946 6
3.994694 0.79676867 0.071101107 30
1.8614078 0.37127033 -0.43820465 3
2.187175 0.43624681 -0.43351805 2
5.6506858 1.1270673 0.50410879 70
2.6811101 0.53476548 -0.43301061 1
3.8701315 0.77192384 -0.4845525 4
41.070965 8.1918812 6.6331344 17
3.9097588 0.77982771 -0.34879729 40
39.357601 7.8501387 7.8010349 15
3.9408603 0.78603113 -0.21059988 37
38.76659 7.7322574 9.1262646 10
3.9515505 0.78816336 -0.070333198 39
41.187172 8.2150583 11.253452 10
1.6056679 0.31501952 -0.43843946 7
3.9775546 0.78036517 0.070752054 35
1.8587404 0.36467037 -0.43730485 3
4.0236659 0.78941184 0.21489143 35
2.1962409 0.43088534 -0.4350445 1
5.6287823 1.1043231 0.50184274 63
2.6789 0.52557927 -0.43238485 1
3.8394222 0.75326473 -0.48040897 4
41.270958 8.0970402 6.6612926 8
3.8985035 0.76485598 -0.3475771 45
3.9374304 0.77249312 -0.21028587 42
38.72567 7.5976748 9.1109676 10
3.9657807 0.77805525 -0.070542626 45
1.6238308 0.31270051 -0.44309822 7
3.9802544 0.76647615 0.070752054 36
1.8542613 0.35707444 -0.43595514 3
4.0087457 0.77196276 0.21394938 44
2.2247212 0.42841378 -0.44038716 1
5.6267333 1.0835381 0.50131983 66
2.6884773 0.51771915 -0.43363634 1
3.8556733 0.74248564 -0.48211512 4
41.60157 8.011199 6.7101002 9
3.9168012 0.75425702 -0.34897161 45
3.9322581 0.75723356 -0.20986718 35
3.9684727 0.76420736 -0.070542626 45
41.567032 8.004549 11.342485 11
1.6211159 0.30631304 -0.44206291 7
3.9888003 0.75369167 0.070856772 37
1.8593261 0.35132331 -0.43685496 3
3.9898281 0.75388587 0.212798 31
2.2030537 0.41627133 -0.43580773 2
5.6128616 1.0605612 0.49975103 63
2.7174425 0.51346612 -0.4380165 1
38.110374 7.2010303 4.7621665 9
3.8387358 0.72533667 -0.47967774 4
41.770973 7.8927073 6.7329392 9
3.929199 0.74242985 -0.34984314 39
3.9427273 0.74498606 -0.21028587 34
41.638565 7.8676887 9.7831211 13
3.9652212 0.74923635 -0.070437916 39
41.752277 7.8891745 11.385449 22
1.6164768 0.29959625 -0.44051 6
3.9874744 0.73903471 0.07078696 28
1.8586251 0.34447581 -0.43640503 3
3.9885077 0.73922622 0.21258865 19
2.2044933 0.40857869 -0.43580773 1
5.5891032 1.035879 0.49731067 63
2.7192183 0.50397736 -0.4380165 1
3.8646665 0.71627361 -0.4826026 4
42.163422 7.8145285 6.7917585 9
3.9239304 0.72725749 -0.34914592 35
3.9531591 0.73267472 -0.21070457 32
41.558472 7.7024078 9.7579269 13
3.9678123 0.73539054 -0.070437916 31
41.927723 7.770844 11.425825 11
1.6023577 0.29090884 -0.43636891 7
3.988189 0.72405773 0.070752054 16
1.8809665 0.34149042 -0.44135398 3
5.5829501 1.0135875 0.29737291 63
2.2214296 0.40330166 -0.43886068 1
5.5732589 1.0118279 0.49556756 64
2.6977241 0.48977315 -0.43426207 1
22.551237 4.0941887 2.8142068 4
3.8750784 0.70352244 -0.48357755 2
42.358932 7.6902857 6.8186655 9
3.92853 0.71322662 -0.3493202 34
40.310253 7.318347 7.9636045 17
3.9636786 0.71960783 -0.21112324 26
41.39085 7.5145297 9.7120371 12
3.9783511 0.72227168 -0.070577532 24
42.107983 7.6447258 11.467237 11
1.6261871 0.28937522 -0.44258058 6
5.5597997 0.98935008 0.098571189 42
1.8552866 0.33014283 -0.43505535 3
5.5825214 0.99339336 0.29716355 76
2.2034948 0.39210543 -0.4350445 2
5.5630255 0.98992407 0.49434736 61
2.691638 0.47896907 -0.43301061 1
3.8462403 0.6844272 -0.47967774 2
41.269188 7.3437309 6.6390786 8
3.9408035 0.70125443 -0.35019177 30
40.524975 7.2113008 8.0010033 17
3.9681327 0.70611757 -0.21122792 17
41.271015 7.3440561 9.677844 12
4.0103798 0.71363533 -0.071101107 11
41.261406 7.3423462 11.229641 10
1.6157684 0.28170615 -0.43947473 4
5.5553393 0.96856284 0.098431572 53
1.8660266 0.32533818 -0.43730485 3
5.5525064 0.9680689 0.29538414 65
2.224191 0.38778344 -0.43886068 1
5.5566335 0.96878844 0.49347582 63
2.6971855 0.47024915 -0.43363634 1
3.8759842 0.67577046 -0.48309007 2
41.064941 7.1595941 6.60216 8
3.9569669 0.68988961 -0.35141197 22
40.754913 7.1055417 8.0414543 17
3.976476 0.69329101 -0.21154194 9
41.042988 7.155767 9.6184568 12
5.5671592 0.97062361 -0.098641001 60
41.08886 7.163764 11.175806 10
1.6472106 0.28126699 -0.44775695 3
5.5862827 0.95387739 0.098920241 63
1.86523 0.31849456 -0.43685496 2
5.5558519 0.94868112 0.29538414 52
2.2061787 0.37671271 -0.4350445 1
5.5639091 0.95005697 0.49382445 50
5.6040235 0.95690662 -0.90043676 5
41.283947 7.0493789 5.1423988 11
3.8528814 0.657893 -0.47992146 1
41.173412 7.0305042 6.6156135 8
3.9848824 0.68043262 -0.35367802 13
41.193611 7.0339532 8.1231203 18
5.5932584 0.95506841 -0.29737291 45
41.148396 7.0262327 9.6373529 12
5.5803695 0.95286763 -0.098815523 68
41.151699 7.0267968 11.186159 10
1.6157432 0.27038267 -0.4389571 4
5.6150551 0.93963796 0.099374004 68
1.8662759 0.31230748 -0.43685496 3
5.5944247 0.93618566 0.29726824 73
2.2229064 0.37198693 -0.43809745 2
5.5945401 0.93620491 0.49626479 67
5.6500282 0.94549048 -0.9073199 5
42.908634 7.1804428 5.3417768 13
3.8589578 0.64576805 -0.48040897 1
42.799938 7.1622534 6.8731046 9
4.0264182 0.67379129 -0.35716423 1
42.912933 7.1811624 8.4574175 20
5.6279125 0.94178957 -0.29904765 49
42.882061 7.1759963 10.037766 14
5.6032214 0.93765765 -0.099164575 68
42.847679 7.1702423 11.640645 11
1.6128641 0.26411664 -0.43792182 7
5.6301413 0.92197096 0.099583432 64
1.8808166 0.30799553 -0.44000426 3
5.6153975 0.91955662 0.29821029 61
2.2164414 0.3629562 -0.43657097 1
5.597774 0.91667062 0.49626479 60
5.6708388 0.92863548 -0.91013575 3
42.874668 7.0209961 5.334465 13
5.655632 0.92614526 -0.7036736 2
42.92215 7.0287714 6.8887482 9
5.6449628 0.92439806 -0.50044829 21
5.6548176 0.92601192 -0.30030373 49
42.949158 7.0331945 10.047664 14
5.634088 0.92261726 -0.099653244 66
42.914387 7.0275006 11.652034 11
1.6099162 0.25815499 -0.43688655 7
5.6450143 0.90519536 0.09979286 64
1.8760551 0.3008312 -0.43865454 3
5.6341925 0.90346003 0.29904765 54
2.2215099 0.35622591 -0.43733421 1
5.6440625 0.90504271 0.50009966 61
5.6738873 0.90982521 -0.91013575 3
5.6919932 0.91272855 -0.70781714 5
5.6637349 0.90819728 -0.50184274 20
5.6716619 0.90946835 -0.30103642 47
5.66081 0.90772825 -0.1000721 71
1.6222588 0.25432903 -0.43999237 7
5.6698709 0.88889194 0.10017681 63
1.8693929 0.29307339 -0.43685496 3
5.6748018 0.88966501 0.30103642 61
2.2188606 0.34786108 -0.43657097 1
5.6786809 0.89027315 0.50288862 59
5.6926408 0.89246172 -0.91263866 3
5.6951447 0.89285421 -0.70781714 5
5.6944275 0.89274186 -0.50428313 20
5.6945333 0.89275843 -0.30208313 42
5.6935778 0.89260858 -0.10059567 71
1.6365911 0.25014129 -0.44361585 6
5.7048702 0.87194878 0.10073529 63
1.8743571 0.28648216 -0.43775475 2
5.6860733 0.86907589 0.30145511 65
2.2318242 0.34111845 -0.43886068 1
5.7017527 0.87147236 0.50463176 59
5.731174 0.87596923 -0.91827029 3
5.7044177 0.8718797 -0.70854837 5
39.878036 6.0950742 6.3894091 8
5.7332649 0.87628877 -0.50742072 20
5.7176628 0.87390411 -0.30312985 40
5.7167306 0.87376159 -0.10094472 80
1.6298115 0.24328616 -0.44154528 6
5.735568 0.85616297 0.10122396 56
1.8734183 0.27964997 -0.43730485 3
5.706851 0.85187632 0.30239716 61
2.2330015 0.33332586 -0.43886068 1
5.7224951 0.85421157 0.50620055 55
5.78304 0.8632493 -0.92609203 3
5.7643633 0.86046135 -0.71561676 5
5.7441711 0.85744721 -0.50811797 17
5.7542596 0.85895318 -0.30490929 42
5.735568 0.85616297 -0.10122396 77
1.6305678 0.23816477 -0.44154528 7
5.7501016 0.83987403 0.10143339 59
1.8762159 0.27404475 -0.43775475 2
5.7450724 0.83913946 0.30428123 61
2.2340376 0.32630906 -0.43886068 1
5.736979 0.83795738 0.50724643 55
5.7974515 0.84679013 -0.92796922 1
5.8004303 0.84722519 -0.71976036 5
5.766551 0.84227675 -0.50986111 17
5.7845979 0.84491271 -0.3063747 47
5.7738457 0.84334224 -0.10185225 77
1.6313893 0.23247157 -0.44154528 5
5.774775 0.82290047 0.10181734 60
1.8848782 0.26859352 -0.43955436 2
5.7756481 0.82302499 0.30574664 56
2.235163 0.3185088 -0.43886068 1
5.7674837 0.82186151 0.50968677 57
2.714402 0.38679996 -0.43426207 1
3.6415887 0.51892328 -0.45164779 1
5.8049603 0.8272019 -0.5129987 2
5.78158 0.82387024 -0.30606067 18
5.7906122 0.82515734 -0.10209658 46
1.6207099 0.2251804 -0.43843946 7
5.7914767 0.80466408 0.10206167 15
1.8877344 0.26228061 -0.44000426 3
5.7824426 0.80340886 0.30595601 45
2.2595961 0.31394684 -0.44344011 1
5.8018923 0.80611122 0.51247579 49
2.6961699 0.37460414 -0.43113339 1
3.549 0.49309582 -0.43994832 1
42.084118 5.8471408 6.7294979 9
6.589292 0.91551203 -0.58202606 15
6.5875926 0.91527593 -0.34855747 61
9.7310276 1.3520228 -0.17148735 12
1.6444588 0.22263181 -0.44465113 6
1.882845 0.25490528 -0.43865454 3
2.2451141 0.30395037 -0.44038716 1
2.7483566 0.37208083 -0.43926796 1
40.59404 5.4957442 5.0297914 10
3.4523425 0.46738857 -0.42776141 1
6.5766525 0.89036715 -0.58063155 12
6.5729346 0.88986385 -0.34761542 52
9.7436142 1.31912 -0.17162697 8
1.626073 0.2143653 -0.43947473 6
1.8914515 0.24935016 -0.44045416 3
2.2461615 0.29611158 -0.44038716 1
2.7261374 0.35938686 -0.43551356 1
41.006588 5.405901 5.0785394 11
6.5323133 0.86115521 -0.57644808 15
6.5641198 0.86534834 -0.3469874 61
9.7739325 1.2884982 -0.17208073 12
1.6306437 0.20917955 -0.44051 7
14.693341 1.8848671 0.25857484 3
1.8981091 0.2434901 -0.44180387 3
2.2471814 0.28826922 -0.44038716 1
2.719538 0.3488633 -0.43426207 1
41.261482 5.2930379 5.1077881 11
41.161423 5.2802019 6.5727506 8
6.5313268 0.83784097 -0.57609946 7
6.5453095 0.8396346 -0.34583601 49
9.8180399 1.2594616 -0.17277883 8
42.446556 5.4450593 11.466719 11
1.6313994 0.20320153 -0.44051 6
1.8951211 0.23604982 -0.44090408 3
2.2404301 0.2790603 -0.43886068 1
2.7443211 0.34182325 -0.4380165 1
40.996944 5.1064396 5.0726895 11
41.313793 5.145905 6.5940256 17
6.520514 0.81217295 -0.57487929 15
6.5225778 0.81242996 -0.34447527 52
9.8305273 1.2244569 -0.17291844 8
1.6340166 0.19773774 -0.44102764 7
1.8823912 0.22779436 -0.43775475 2
2.2569828 0.27312493 -0.44191363 1
45.591961 5.5172334 4.01788 49
2.7454977 0.33224171 -0.4380165 1
41.45113 5.0161381 6.6131105 26
6.5173755 0.78868908 -0.57435632 12
45.521667 5.5087271 8.9130697 24
6.5075288 0.78749752 -0.34353322 54
45.457909 5.5010114 10.57135 16
9.8804016 1.19566 -0.17372125 12
45.476295 5.5032363 12.274235 13
1.6500462 0.19383588 -0.44516876 7
1.8889811 0.22190428 -0.43910447 3
2.2423236 0.26341248 -0.43886068 1
45.808819 5.3812995 4.0353107 49
2.7309456 0.32081237 -0.43551356 1
3.6532552 0.42915884 -0.45164779 1
45.698215 5.3683062 7.2876558 10
6.4963436 0.76314497 -0.57226461 10
45.645908 5.3621621 8.9336767 24
6.4963527 0.76314604 -0.34280053 57
9.9023895 1.1632634 -0.1740354 12
45.59116 5.3557305 12.300117 13
1.6391962 0.18676281 -0.44206291 7
1.8936167 0.21575037 -0.44000426 3
2.2354269 0.25469473 -0.43733421 2
2.7556009 0.31396106 -0.43926796 1
45.861912 5.2253051 7.3108082 11
6.4732332 0.73753178 -0.56999856 15
45.917931 5.2316875 8.9832878 24
6.4890547 0.7393344 -0.34227714 61
9.9262581 1.1309543 -0.17438444 12
1.6417266 0.18153834 -0.44258058 5
1.8962586 0.2096839 -0.44045416 3
2.2440646 0.24814349 -0.43886068 1
2.7252123 0.30134767 -0.43426207 1
43.677765 4.8297868 5.3956432 13
46.096928 5.0972919 7.3455367 11
6.4756432 0.71606171 -0.56999856 15
46.067719 5.0940623 9.0092373 25
6.4775748 0.71627527 -0.34154445 61
9.9776554 1.1033062 -0.17522216 12
1.6519547 0.17683464 -0.44516876 7
1.8931037 0.20264861 -0.43955436 3
2.2566297 0.24156252 -0.4411504 1
2.7183909 0.29099205 -0.43301061 1
43.836475 4.6925058 5.4131923 13
46.310856 4.9573779 7.3768234 11
6.4464064 0.69006008 -0.5672096 15
46.214058 4.9470162 9.0344248 25
6.462162 0.69174665 -0.3406024 66
46.238621 4.9496455 10.736014 17
10.043084 1.0750691 -0.17630421 8
46.101063 4.9349203 12.423314 14
1.6544834 0.17126608 -0.4456864 6
1.8782924 0.19443397 -0.43595514 3
2.2496479 0.23287533 -0.43962392 1
2.72332 0.28190812 -0.43363634 1
44.026348 4.5574465 5.4346414 13
10.368316 1.0732902 -1.2798718 2
6.4329214 0.66591251 -0.56581509 15
6.4248047 0.66507232 -0.33850896 59
10.074623 1.0428882 -0.17679287 8
1.6666049 0.16664305 -0.44879222 6
10.350801 1.0349718 0.18157484 20
1.8983505 0.18981519 -0.44045416 3
10.33024 1.0329161 0.54408461 21
2.2465401 0.22463052 -0.43886068 1
2.7596676 0.27593791 -0.43926796 1
44.314571 4.4309936 5.4682775 14
46.713863 4.670898 7.4356432 11
6.4193468 0.64186752 -0.56442058 17
46.720219 4.6715336 9.1267757 25
6.4191375 0.64184666 -0.33809027 61
10.110039 1.0108981 -0.17735136 4
46.691845 4.6686964 12.573429 14
1.6402555 0.15822756 -0.44154528 6
1.8931823 0.1826262 -0.43910447 3
2.2394938 0.21603322 -0.43733421 2
2.7763441 0.2678206 -0.44177094 1
11.817978 1.1400236 -1.4578011 2
46.991394 4.5330343 7.4772544 11
6.4017162 0.61754286 -0.5626775 15
46.986378 4.5325503 9.1756229 26
6.4014587 0.61751801 -0.33704355 57
10.169238 0.98097759 -0.17832869 4
1.6311799 0.15160714 -0.4389571 7
11.779429 1.0948182 0.20649688 4
1.9093312 0.17745942 -0.44270366 3
2.267602 0.21075825 -0.44267687 1
2.7300565 0.25374028 -0.43426207 1
43.201965 4.0153303 5.3273964 13
47.12888 4.3803105 7.4966526 11
6.3720913 0.59224278 -0.55988848 17
47.123112 4.3797746 9.1992836 26
6.4055638 0.59535384 -0.33714822 59
47.149227 4.3822017 10.932171 18
10.212422 0.9491756 -0.17902678 4
1.6509666 0.14734484 -0.44413349 7
1.8827944 0.16803493 -0.43640503 2
11.804815 1.0535517 0.62112314 2
2.2605371 0.20174757 -0.4411504 1
2.7663841 0.24689321 -0.43989372 1
43.414116 3.8746066 5.3517704 13
3.6638136 0.32698664 -0.45164779 1
6.3662815 0.56817549 -0.55919123 15
6.3758731 0.56903154 -0.33547348 52
10.259652 0.91564959 -0.17979468 4
44.737732 3.9927363 12.035086 12
1.6456965 0.14108597 -0.44258058 6
45.581833 3.9077415 0.79855233 29
1.9066689 0.16345918 -0.44180387 3
2.2651398 0.19419098 -0.44191363 1
2.7554202 0.23622283 -0.4380165 1
43.62516 3.7399955 5.3761444 13
6.3483748 0.54424769 -0.55744815 15
6.3559313 0.54489553 -0.33432209 59
10.314588 0.8842721 -0.18070221 4
44.974674 3.8556898 12.095132 13
1.6653847 0.13750482 -0.44775695 6
1.8974624 0.15666664 -0.43955436 3
2.2735651 0.18772009 -0.44344011 1
2.7640233 0.22821547 -0.43926796 1
43.822659 3.6182792 5.3990555 13
6.3421106 0.52364528 -0.55675089 15
6.3456688 0.52393901 -0.33369407 61
10.361159 0.85548365 -0.18147013 4
45.182945 3.7305932 12.147931 13
1.6427444 0.12986378 -0.44154528 7
46.133022 3.6469514 0.80776715 30
1.9154818 0.15142448 -0.44360349 3
2.2624636 0.17885441 -0.4411504 1
2.7805572 0.21981122 -0.44177094 1
44.044788 3.4818702 5.4248919 13
6.3200655 0.49961978 -0.55465913 15
6.3355126 0.50084096 -0.33306602 59
10.427874 0.82435411 -0.18258707 4
1.6508931 0.12471082 -0.44361585 6
32.797543 2.4775732 0.57411438 28
1.9101691 0.1442969 -0.44225377 2
2.2767777 0.17199105 -0.44382173 1
2.7458515 0.20742555 -0.43613929 1
44.262535 3.3436551 5.4502406 14
3.6679254 0.27708033 -0.45164779 1
6.3118377 0.47680521 -0.55378759 20
6.3232813 0.47766969 -0.33233333 57
10.470568 0.79096162 -0.18328518 4
45.597015 3.4444635 12.252494 13
1.6513184 0.11894737 -0.44361585 5
1.9242671 0.13860835 -0.4454031 3
2.261699 0.16291416 -0.44076878 2
2.7583807 0.19869101 -0.4380165 1
44.452133 3.2019656 5.472177 14
6.2856421 0.45276585 -0.55134726 20
6.3089733 0.45444646 -0.33149594 61
10.497199 0.75613171 -0.18370403 4
45.708958 3.2924964 12.27941 13
1.6633074 0.11368458 -0.44672167 6
1.9169854 0.13102309 -0.44360349 3
2.2622807 0.15462351 -0.44076878 2
2.7551486 0.1883103 -0.43739077 1
44.629932 3.0503893 5.4926515 14
3.6698141 0.25082633 -0.45164779 1
6.2872591 0.42972478 -0.55134726 27
6.2966485 0.43036652 -0.33076325 66
10.575712 0.72283411 -0.18503042 4
1.6598386 0.10762785 -0.4456864 6
1.9057631 0.12357418 -0.44090408 3
2.2588885 0.14647166 -0.44000554 1
45.231869 2.9329412 3.9655862 48
2.7360768 0.17741369 -0.43426207 1
44.838402 2.907428 5.517025 14
46.217621 2.9968598 7.335525 22
6.3026385 0.40867797 -0.55256742 22
6.2841606 0.40747982 -0.33003053 35
10.622071 0.68876022 -0.18579832 4
44.802147 2.905077 12.029909 12
1.6601863 0.10212304 -0.4456864 6
1.9100525 0.11749306 -0.44180387 3
2.2554426 0.13873905 -0.4392423 1
2.7839699 0.17125033 -0.44177094 1
6.3238454 0.38899869 -0.5543105 22
6.3293343 0.38933632 -0.33233333 33
10.660224 0.65574235 -0.18642661 4
45.004353 2.7683527 12.081673 13
1.6489609 0.095656015 -0.44258058 6
1.9260148 0.11172787 -0.4454031 3
46.661411 2.7068224 2.449532 55
2.2715929 0.13177481 -0.44229525 2
2.8121595 0.16313301 -0.44615111 1
3.6722026 0.21302399 -0.45164779 1
6.3430662 0.36796045 -0.55587935 32
6.3625574 0.36909112 -0.33400807 33
10.690396 0.62014854 -0.18691528 4
45.202747 2.6222055 12.132401 13
1.6454269 0.089689195 -0.44154528 7
1.9088804 0.10404956 -0.44135398 3
2.2955632 0.12512693 -0.44687468 1
2.7693179 0.15095042 -0.43926796 1
3.6213877 0.19739519 -0.44531059 1
6.3860898 0.34809402 -0.55953985 32
6.391727 0.34840128 -0.33547348 33
10.792333 0.58827019 -0.18866052 4
45.547268 2.4826977 12.22247 13
1.6495886 0.084141858 -0.44258058 5
50.286953 2.565026 0.87890321 37
