# .PCD v0.7 - Point Cloud Data file format
VERSION 0.7
FIELDS x y z intensity
SIZE 4 4 4 4
TYPE F F F F
COUNT 1 1 1 1
WIDTH 1370
HEIGHT 1
VIEWPOINT 0 0 0 1 0 0 0
POINTS 1370
DATA ascii
0.082371347 1.7402253 -0.40221247 5
1.3857894 29.276999 1.5360603 15
0.090782084 1.9179155 -0.37322238 5
1.3693166 28.928984 2.5337918 17
0.088820897 1.8764822 -0.29753834 9
0.47557205 10.047214 1.235024 1
0.13975267 2.9524968 -0.3629269 1
0.09265019 1.9573822 0.31036597 1
0.16984574 3.5882607 -0.31428361 52
0.17088938 3.6103091 0.7025587 7
0.17545463 3.7067573 -0.19448042 34
0.23679459 5.0026612 1.1562485 22
0.17103584 3.6134033 -0.063142806 29
0.24268897 5.1271892 1.3753644 19
0.077086784 1.5164773 -0.40686354 8
0.19755603 3.8863893 0.067924768 20
0.088841096 1.747712 -0.40401208 4
1.4925395 29.361744 1.5407705 15
0.09757597 1.9195476 -0.373604 4
1.4781787 29.079233 2.5473881 17
0.095571071 1.8801064 -0.2981641 9
0.18956281 3.7291436 0.45847246 1
0.15328284 3.0154321 -0.37072656 1
0.099883303 1.9649382 0.31161746 1
0.18798697 3.6981435 -0.19406173 34
0.25573966 5.0309973 1.162997 19
0.18425705 3.6247671 -0.063352235 32
0.25911361 5.0973706 1.3675998 29
0.082589433 1.5200571 -0.40789881 8
0.20385206 3.7518938 0.065586142 23
0.094518304 1.7396078 -0.40221247 4
0.1047019 1.9270368 -0.37513047 3
0.10266913 1.8896238 -0.29972842 9
0.20031714 3.6868339 0.45335397 23
0.16359234 3.0109143 -0.37023908 1
0.10652727 1.9606326 0.3109917 1
0.20786338 3.825722 -0.335201 4
1.3578228 24.990707 4.8648663 6
0.20056969 3.6914818 -0.19374771 33
0.27520263 5.0650997 1.1710951 13
0.20526242 3.7778516 -0.066039905 34
0.27742922 5.1060801 1.370188 30
0.088006459 1.5216881 -0.40841645 11
0.21579278 3.7311957 0.065237097 23
0.10059009 1.7392673 -0.40221247 4
1.3757471 23.78755 1.2487359 18
0.11154123 1.9286195 -0.37551209 2
0.10972074 1.8971422 -0.30097991 8
0.21295615 3.6821485 0.45286649 30
0.16997522 2.9389808 -0.36146447 1
0.11519538 1.9918021 0.31599763 1
0.22259682 3.8488419 -0.33729273 4
1.4495826 25.064213 4.8801308 6
0.2125316 3.6748078 -0.19291033 33
0.2145697 3.7100477 0.85796332 6
0.22029568 3.8090537 -0.066598386 40
0.29525107 5.1050806 1.370188 29
0.093199328 1.5194435 -0.40789881 18
0.22893819 3.7324157 0.065272003 22
0.1073765 1.7505761 -0.40491191 4
1.4540039 23.704857 1.2446537 9
0.11851308 1.9321376 -0.37627533 6
0.11682609 1.9046344 -0.3022314 3
0.22678021 3.6972337 0.4548164 13
0.18169154 2.962146 -0.36438933 1
0.12069611 1.9677278 0.31224319 1
0.23639637 3.8540075 -0.33781567 3
1.5250446 24.863045 4.841969 6
0.22584689 3.6820176 -0.19332902 24
0.22811541 3.7190015 0.8602128 22
0.23248857 3.790298 -0.066284239 34
0.31578961 5.1483679 1.3820937 27
0.097877592 1.5094699 -0.40531063 23
0.24157718 3.7256074 0.065167286 22
0.11222553 1.730744 -0.40041289 5
0.25459412 3.9263549 0.20620367 1
0.12894081 1.9885272 -0.38734227 2
0.19305784 2.9773412 -0.36633924 1
0.12679711 1.9554671 0.31036597 1
0.24933225 3.845206 -0.33711842 3
1.6161427 24.924179 4.8549442 6
0.35643178 5.4968967 -0.28868514 2
0.24134795 3.7220721 0.86111265 23
0.24558838 3.787468 -0.066249333 32
0.33475888 5.1626568 1.3862348 24
0.10275084 1.5033369 -0.40375772 27
0.25539866 3.7367115 0.065376714 23
0.11879781 1.7381185 -0.40221247 4
0.26407617 3.8636713 0.20295884 15
0.13829099 2.0233214 -0.39421138 2
0.16298674 2.3846424 -0.37857139 1
0.20588604 3.0122976 -0.37072656 1
0.13631618 1.9944282 0.31662336 1
0.26166612 3.8284101 -0.33572391 3
1.7141122 25.078999 4.8862367 6
0.37915835 5.5474267 -0.2914066 2
0.2588076 3.7865877 -0.066249333 30
0.35514903 5.1961493 1.3955523 27
0.10787364 1.5049149 -0.40427536 28
0.27894053 3.8914211 0.06809929 25
0.12372498 1.7260525 -0.39951307 3
0.2770299 3.8647664 0.2030635 20
0.14556128 2.0306845 -0.39573786 2
0.707268 9.8668966 0.86545652 18
0.17089361 2.3840888 -0.37857139 1
0.2141709 2.987838 -0.36780167 1
0.27568951 3.8460672 0.61072016 1
0.27521485 3.8394451 -0.33676979 3
0.70352274 9.8146486 1.9126694 14
0.39383942 5.4943433 -0.28868514 2
0.55132854 7.6914301 1.7802626 27
0.27093405 3.7797248 -0.066144623 29
0.37500247 5.231554 1.4053874 27
0.1139952 1.5160877 -0.40738118 26
0.29387185 3.9083703 0.068413436 31
0.13033374 1.7333832 -0.40131268 4
0.28991976 3.8558095 0.20264482 18
0.15205999 2.0223331 -0.39421138 2
0.74364758 9.8901958 0.86772257 39
0.17921458 2.3834777 -0.37857139 1
0.75238466 10.006395 -1.2320991 2
0.29000178 3.8569002 0.61259735 1
0.28951165 3.8503819 -0.33781567 3
0.74042761 9.8473721 1.9195385 30
0.57831943 7.691402 1.7807126 42
0.28487578 3.7887263 -0.066319145 24
0.11917334 1.5176272 -0.40789881 23
0.3066743 3.9053807 0.06837853 25
0.13669136 1.7407125 -0.40311229 4
0.30145365 3.8388977 0.20180745 18
0.15891914 2.0237749 -0.394593 2
0.77597266 9.8817167 0.86719966 16
0.1871175 2.3828702 -0.37857139 2
0.23201691 2.9546471 -0.36390185 1
0.15557042 1.9811301 0.31474614 1
0.30212241 3.8474143 -0.33764136 3
0.77215648 9.8331194 1.9172488 21
0.43122882 5.4915352 -0.28868514 2
0.60077071 7.6505866 1.7717144 35
0.77020806 9.8083067 -0.17173168 4
0.30322656 3.8614752 1.0378643 20
0.12320646 1.5017989 -0.40375772 28
0.31997776 3.9003005 0.068308719 23
0.14181072 1.7285714 -0.40041289 5
0.31517866 3.8418031 0.20201679 22
0.16405617 1.9997277 -0.39001358 2
0.32532498 3.9654794 0.34810004 3
0.19478807 2.3743277 -0.37731993 1
0.24200451 2.9498622 -0.36341438 1
0.15957762 1.9451374 0.30911452 1
0.31489894 3.8383932 -0.3369441 1
0.80422843 9.8029709 1.9119061 9
0.62779123 7.6523275 1.7726144 41
0.79986262 9.7497549 -0.17075434 4
0.3167038 3.8603933 1.0378643 28
0.12871 1.5013372 -0.40375772 28
0.33461255 3.9030864 0.06837853 25
0.14847821 1.7319233 -0.40131268 4
0.33949345 3.9600198 0.2082971 26
0.17171983 2.0030251 -0.39077681 3
0.33951664 3.96029 0.34775141 18
0.20213926 2.3578525 -0.37481698 1
0.25247556 2.9449999 -0.3629269 1
0.16805567 1.9602846 0.31161746 1
0.3282845 3.829273 -0.33624685 1
0.33656415 3.9258511 0.76590729 2
0.47665563 5.5599475 -0.29245332 2
0.66498929 7.7567639 1.7973589 42
0.83285898 9.714879 -0.17019586 4
0.33134574 3.8649809 1.0394173 6
0.13394986 1.5008788 -0.40375772 28
0.34681273 3.8859603 0.06809929 23
0.15452284 1.7313945 -0.40131268 4
0.35935095 4.0264487 0.21185595 31
0.18028134 2.0200129 -0.39421138 2
0.35386989 3.9650342 0.34827435 20
0.21317807 2.3886132 -0.37982288 2
0.26381275 2.9559641 -0.36438933 1
0.17770691 1.9911669 0.31662336 1
0.34164914 3.8281038 -0.33624685 1
0.35148755 3.9383407 0.76857865 26
0.49428511 5.5383563 -0.2914066 2
0.69154167 7.7485723 1.7960092 38
0.86356544 9.6760607 -0.16956758 4
0.88441259 9.9096489 2.6658361 2
0.13928244 1.5042735 -0.40479299 32
0.35951275 3.8827977 0.068064384 16
0.15954483 1.7231108 -0.39951307 3
0.37288532 4.0272236 0.21196063 30
0.18697897 2.0194039 -0.39421138 2
0.36683276 3.9618552 0.34810004 21
0.21964084 2.3721576 -0.37731993 1
0.27617592 2.9827459 -0.36780167 1
0.35691342 3.8547244 -0.33868721 1
0.36526963 3.944973 0.77010512 28
0.51080686 5.516799 -0.29035988 2
0.89896625 9.7089853 -0.17019586 4
0.91263843 9.8566465 2.6523776 11
0.14453249 1.5037782 -0.40479299 27
2.2188702 23.086081 0.40482602 26
0.16667728 1.7341821 -0.40221247 5
0.38598526 4.0159569 0.21143727 24
0.19289988 2.0070136 -0.39192167 2
0.38085061 3.9625337 0.34827435 21
0.22867581 2.3792417 -0.37857139 1
0.28544644 2.9699078 -0.36633924 1
0.36846057 3.8336225 -0.3369441 1
0.43162993 4.4908638 0.87695813 24
0.52700365 5.4831729 -0.28868514 2
2.5396845 26.423971 6.1285667 5
0.93170357 9.6938448 -0.16998644 4
0.94593 9.8418636 2.6492717 9
0.14958924 1.5013422 -0.40427536 25
0.17195685 1.7258333 -0.40041289 4
0.40039727 4.0185599 0.2116466 24
0.19990449 2.0063279 -0.39192167 2
0.3998161 4.0127273 0.35280645 25
0.23619613 2.3705664 -0.37731993 1
0.40897974 4.1046972 0.50648898 14
0.29581162 2.9688933 -0.36633924 1
0.80377191 8.0670023 1.2840141 1
0.38342047 3.8481736 -0.33833858 3
0.44788727 4.4951901 0.87810302 34
0.54614025 5.4812999 -0.28868514 2
0.96160591 9.6510925 2.2391627 4
0.9655357 9.6905336 -0.16998644 4
0.98430103 9.87887 2.6601422 11
0.15456705 1.5008379 -0.40427536 26
0.17847753 1.7330074 -0.40221247 4
0.41372108 4.01721 0.2116466 22
0.20776337 2.0173714 -0.39421138 2
0.42618367 4.1382213 0.36396238 30
0.24203223 2.3501203 -0.37419125 1
0.42258915 4.1033187 0.50648898 21
0.30728209 2.9836931 -0.36828914 1
0.83294702 8.0878725 1.2877685 22
0.39454648 3.8310256 -0.3369441 1
0.46178576 4.4839158 0.87619489 34
2.5134273 24.405247 -1.2857897 6
0.4232353 4.1095924 0.95379245 1
0.9939779 9.651474 -0.16935815 4
1.0154718 9.860178 2.6560011 2
0.16021423 1.5041312 -0.40531063 25
2.4422853 22.928783 0.4024874 100
0.18370014 1.7246228 -0.40041289 3
0.4260489 3.9998531 0.21080923 17
0.21418022 2.0107772 -0.39306653 2
0.44252542 4.1545391 0.36553118 31
0.25148955 2.3610468 -0.37606844 1
0.43648931 4.0978708 0.50600153 21
0.31601322 2.9668109 -0.36633924 1
0.86096466 8.0829506 1.2874557 21
0.41044918 3.8533993 -0.33903584 1
0.47597915 4.4686112 0.87352359 38
0.5918991 5.5568962 -0.29287201 2
0.43613306 4.0945258 0.95064318 20
1.0314742 9.6837368 -0.16998644 4
1.0404718 9.7682085 2.6321898 1
0.16583419 1.5093526 -0.40686354 22
0.18899253 1.72013 -0.39951307 4
1.0666478 9.7081757 0.51184565 57
0.22384883 2.0373771 -0.39840919 2
0.45586473 4.1490879 0.36518255 28
0.26104361 2.3759081 -0.37857139 1
0.44725755 4.0707488 0.50283289 22
0.33235377 3.0249434 -0.37365142 1
0.46254337 4.2098737 0.67079097 3
0.4214845 3.8361733 -0.33764136 1
0.48307607 4.3967538 0.85978532 19
0.60726941 5.5271087 -0.2914066 2
0.44992143 4.0949941 0.95109308 26
1.063581 9.6802635 -0.16998644 4
0.45425066 4.134397 1.1144748 14
0.17158315 1.5106541 -0.40738118 27
2.5889826 22.793945 0.40042803 13
0.19617556 1.7271709 -0.40131268 4
1.0999688 9.6843557 0.51079893 57
0.22799119 2.0072825 -0.39268491 2
0.47039428 4.1414499 0.36465964 27
0.26974997 2.3749354 -0.37857139 1
0.46329474 4.0789442 0.50405163 22
0.34164628 3.0079255 -0.37170151 1
0.47083634 4.1453419 0.66077918 33
0.43689105 3.8464806 -0.33868721 1
0.4721567 4.1569667 0.81322795 41
0.62166268 5.473249 -0.28868514 2
0.47020558 4.1397886 0.9618907 37
1.0990537 9.6763 -0.16998644 4
0.46961895 4.134624 1.1149925 48
0.1752454 1.4985641 -0.40427536 27
2.6531746 22.687914 0.39871767 6
0.2014493 1.7226398 -0.40041289 3
1.1297574 9.6608181 0.50975221 19
0.23213796 1.9850657 -0.3884871 3
0.48273674 4.1279941 0.36361375 25
0.27578855 2.3583319 -0.37606844 2
0.49756974 4.2548347 0.5259881 24
0.34839106 2.9791729 -0.36828914 1
0.48435074 4.1417956 0.66046631 32
0.44825554 3.8331373 -0.33764136 1
0.485255 4.149528 0.81208307 35
0.48325196 4.1324 0.96054101 34
1.1297419 9.6606855 -0.16977701 4
0.48489797 4.1464753 1.1186159 30
0.18073674 1.4979118 -0.40427536 23
2.7549968 22.83289 0.40144026 6
0.2086955 1.7296287 -0.40221247 3
2.7906382 23.128281 1.2208931 17
0.24223419 2.007591 -0.39306653 2
0.49714735 4.1202626 0.36309081 23
0.28537694 2.3651497 -0.37731993 1
0.51767927 4.2904272 0.53061914 28
0.35930791 2.9778759 -0.36828914 1
0.50662684 4.1988273 0.66985238 18
0.46230167 3.8314686 -0.33764136 1
0.5355022 4.4381404 0.86894417 38
2.9183989 24.187136 -1.276788 6
0.56025636 4.6432986 1.0797651 30
1.1593934 9.6088324 -0.16893929 4
0.18522744 1.4934698 -0.40324008 25
2.8661404 23.109394 0.40646654 7
0.21347059 1.7211914 -0.40041289 4
2.860436 23.0634 1.2179624 34
0.24961518 2.0126216 -0.39421138 2
0.29321849 2.3641906 -0.37731993 1
0.53165966 4.2867169 0.53037536 28
0.37162423 2.9963679 -0.37072656 1
0.52176356 4.2069259 0.6714167 18
0.47843793 3.8575959 -0.34008172 1
0.54828352 4.4207535 0.86589122 42
2.986299 24.078222 -1.2715544 6
0.57804954 4.6607542 1.084264 37
1.1966659 9.6485939 -0.16970719 4
0.52500921 4.2330956 1.1429449 21
0.19265845 1.5081111 -0.40738118 28
2.9579163 23.154274 0.40744388 7
0.21878988 1.7126653 -0.39861327 4
2.9340653 22.967571 1.2134615 34
0.25599501 2.0039034 -0.39268491 2
1.095225 8.5733118 0.75616324 35
0.30288297 2.3709376 -0.37857139 1
0.54585838 4.2729254 0.52891296 25
0.38008851 2.9752948 -0.36828914 1
0.53667855 4.2010665 0.67079097 16
0.49156362 3.8479111 -0.33938447 1
0.56522906 4.4245567 0.8670361 41
3.0745301 24.067116 -1.2715544 6
0.59167105 4.6315417 1.0779655 28
1.2274605 9.6084385 -0.16907892 4
0.54223442 4.2445569 1.1465684 28
0.19740732 1.5055486 -0.40686354 27
3.1027958 23.663813 0.41658893 22
0.22548147 1.7196592 -0.40041289 4
3.1384835 23.935989 1.2651694 57
0.26289403 2.0049901 -0.39306653 2
1.1215769 8.5538292 0.75476873 21
0.3107436 2.3699203 -0.37857139 1
0.55821842 4.2573137 0.52720678 24
1.1450832 8.7331028 -1.0814686 2
0.56421793 4.3030701 0.68737304 16
0.50432104 3.8462598 -0.33938447 1
0.57377261 4.3759398 0.85787725 23
3.1506875 24.029062 -1.270089 6
0.60677314 4.6276221 1.0775156 39
1.2551569 9.5725918 -0.16852044 4
1.2492417 9.5274792 2.5747318 31
0.20137227 1.4952774 -0.40427536 26
1.2861618 9.5503159 0.16820629 20
0.23096263 1.714999 -0.39951307 4
3.2164185 23.88332 1.2629713 77
0.27041522 2.0079517 -0.39382976 2
1.1482375 8.5261669 0.75267702 36
0.31637782 2.3492441 -0.37544271 1
0.57360566 4.259274 0.52769428 24
0.40086162 2.9765735 -0.36877662 1
0.59505391 4.4185367 0.70614517 28
0.51774395 3.844476 -0.33938447 1
0.59061617 4.3855844 0.86016697 17
0.6218825 4.6177506 1.0757159 37
1.2509319 9.2887182 -0.16359887 32
1.2783657 9.4924269 2.5664496 41
0.20580129 1.490774 -0.40324008 23
1.3216532 9.5737314 0.16869496 50
0.2377145 1.7219454 -0.40131268 4
1.2157069 8.806282 0.46589467 2
0.27680385 2.0050991 -0.39344814 2
1.1890383 8.613101 0.76069534 38
0.3247067 2.3520956 -0.37606844 1
0.40964422 2.9673622 -0.36780167 1
0.60916275 4.4126253 0.70551944 24
0.5304898 3.8427379 -0.33938447 1
0.60166579 4.3583193 0.85520589 20
1.320043 9.562067 -0.50587934 19
0.63879108 4.6272454 1.0784154 42
1.2811805 9.2805567 -0.16352905 36
1.3050814 9.4536896 2.5571322 31
0.21234867 1.4976606 -0.40531063 27
1.3536459 9.5470438 0.16831101 54
0.24292986 1.7133448 -0.39951307 4
1.2510595 8.8235197 0.46704608 35
0.2830486 1.9962958 -0.39192167 2
1.2231162 8.6264391 0.76226413 40
0.33332539 2.3508897 -0.37606844 1
4.0555267 28.602968 3.5471292 12
1.2442745 8.7756653 -1.0882932 2
0.62533176 4.4103632 0.70551944 22
0.5456894 3.8486583 -0.34008172 1
0.61598212 4.3444219 0.85291618 19
1.3531182 9.5433226 -0.50514662 26
0.65465224 4.6171556 1.0766157 42
1.3151869 9.2757988 -0.16352905 36
0.21786901 1.5007719 -0.4063459 25
1.3821374 9.5207338 0.16792706 40
0.24805026 1.7086728 -0.39861327 4
1.2774432 8.7995567 0.46599936 30
0.29164138 2.0089464 -0.394593 2
0.33998424 2.3419518 -0.37481698 1
4.1004472 28.245575 3.5044749 12
0.42863902 2.9526429 -0.36633924 1
0.64108878 4.4160848 0.7067709 21
0.56016642 3.8586581 -0.34112757 1
0.63292384 4.3598413 0.85635078 17
1.382749 9.5249472 -0.50441396 26
0.66520023 4.5821743 1.0689675 35
1.3436409 9.2555552 -0.16324981 32
0.69634819 4.7967343 1.298754 11
0.22479087 1.5095171 -0.40893409 27
1.4152561 9.5037374 0.16771762 24
0.25488526 1.7116071 -0.39951307 4
1.3073331 8.7790117 0.46516198 35
0.29726756 1.996213 -0.39230329 2
4.3449998 29.177572 2.5808558 18
0.35089326 2.3563209 -0.37731993 1
4.2685623 28.664278 3.558341 6
0.43945813 2.951052 -0.36633924 1
0.65581548 4.4039364 0.70520657 21
1.3214599 8.8738756 -0.78492463 2
0.68302137 4.5866294 0.90138167 31
1.4138261 9.4941339 -0.50305319 23
0.67653662 4.5430832 1.0604193 16
1.3746098 9.2307892 -0.16290076 32
0.71477807 4.7998824 1.3003069 19
0.2280501 1.4973044 -0.40582827 32
1.418762 9.3151407 0.16447148 48
0.26114661 1.7146055 -0.40041289 5
1.3520761 8.8773012 0.47060493 35
0.3044768 1.9990979 -0.39306653 2
4.4345326 29.11573 2.5766723 18
0.36108467 2.3707671 -0.37982288 1
4.302319 28.24766 3.5083747 24
0.45462188 2.9849029 -0.37072656 1
0.66773891 4.3841615 0.70239073 10
1.3619792 8.9423227 -0.79137415 5
0.69940984 4.5921025 0.90290815 33
1.4465048 9.4972916 -0.50347191 38
0.69013119 4.5311823 1.0581697 16
1.4028039 9.2103643 -0.16262153 34
0.72720057 4.7745676 1.2940953 28
0.23204707 1.4869148 -0.40324008 23
1.4155852 9.0708084 0.160248 26
0.26983303 1.7290403 -0.40401208 4
1.3867596 8.8860998 0.47133762 26
0.31210455 1.9999083 -0.39344814 2
4.5375309 29.075659 2.5745807 18
0.37098989 2.3772347 -0.38107437 1
4.4067416 28.237585 3.5091059 6
0.46004948 2.9479122 -0.36633924 1
4.5773692 29.330938 4.7017941 36
1.404269 8.9982967 -0.79677778 2
0.71260339 4.5662313 0.89832872 26
1.4274108 9.1465855 -0.4851543 21
0.70643371 4.5266967 1.0577198 16
1.4365522 9.2051611 -0.16262153 31
0.74231231 4.7566004 1.2899541 40
0.23819341 1.4937681 -0.40531063 25
1.4421935 9.044342 0.15986404 24
0.27311033 1.7127405 -0.40041289 4
0.31935307 2.0027399 -0.39421138 2
4.6263943 29.013231 2.5703971 18
0.37513831 2.3525827 -0.37731993 1
4.4850397 28.12676 3.4971626 12
0.47294849 2.9659736 -0.36877662 1
4.6702542 29.288288 4.6974139 31
0.60771233 3.81111 -0.33764136 1
0.72805077 4.5657816 0.89871037 24
1.4558471 9.1299677 -0.48452628 16
0.72113401 4.5224047 1.0572699 17
1.4654952 9.1904736 -0.16244701 42
0.7583859 4.7560205 1.2904718 46
0.24397793 1.4947917 -0.40582827 31
1.4756551 9.0409689 0.15989895 24
0.27875817 1.7078815 -0.39951307 4
1.5221171 9.3256302 0.49520281 2
0.32732385 2.0054312 -0.39497462 2
1.5232202 9.3323879 0.82728231 16
0.38503128 2.3589902 -0.37857139 1
1.5224379 9.3275957 1.1604398 32
1.5358684 9.4098806 -1.1706769 2
1.5229419 9.3306837 1.4973907 25
1.5322067 9.3874464 -0.83216304 5
0.74193406 4.5456438 0.89527583 11
1.4844744 9.0950022 -0.4829562 19
0.75465614 4.623589 1.0815647 16
1.4965932 9.1692514 -0.16216776 38
0.7761237 4.7551155 1.2909894 36
0.25052109 1.5035022 -0.40841645 33
1.5260053 9.1583204 0.16206305 35
0.28377959 1.7031032 -0.39861327 4
1.5573012 9.3461428 0.49656355 59
0.33139086 1.9888422 -0.39192167 2
1.5567788 9.343008 0.82867682 48
0.39285186 2.3577003 -0.37857139 1
1.5504246 9.3048735 1.1582463 45
1.5641278 9.3871136 -1.1684833 4
1.5506284 9.306097 1.494262 41
1.5636556 9.3842793 -0.83233732 12
1.5353072 9.2141457 -0.48955053 16
0.79080343 4.7460065 1.1108083 31
1.5227187 9.1385956 -0.161714 34
0.78807777 4.7296486 1.2847778 22
0.25421017 1.4950452 -0.4063459 26
1.5805019 9.2951508 0.16457619 62
0.29073238 1.7098374 -0.40041289 4
1.5866115 9.3310823 0.4960402 64
0.34061706 2.0032163 -0.39497462 2
1.583411 9.3122597 0.82641077 46
0.39669454 2.3330157 -0.37481698 1
1.5819377 9.3035946 1.1587337 60
1.5912549 9.3583908 -1.1655585 4
1.5778376 9.2794819 1.4908204 47
1.5887548 9.3436871 -0.82919973 15
1.5767114 9.2728586 1.8283318 34
1.5758979 9.268074 -0.49269068 7
0.80817074 4.752964 1.1130579 24
1.5516741 9.1256104 -0.16157438 34
0.80116683 4.7117729 1.2806367 22
0.25718564 1.4827734 -0.40324008 23
1.6171267 9.3233528 0.16516958 52
0.29773295 1.7165443 -0.40221247 4
1.6137911 9.3041229 0.49488881 52
0.34490949 1.988535 -0.39230329 2
1.6108779 9.2873268 0.82466763 48
0.40847996 2.3550432 -0.37857139 1
1.611763 9.2924299 1.1580025 63
1.6209227 9.3452387 -1.1645834 7
1.6075881 9.2683592 1.4898819 42
1.6207522 9.3442564 -0.82972264 17
1.6040976 9.2482357 1.8245156 48
1.6192523 9.3356085 -0.49656355 9
0.82093036 4.7329774 1.1090087 19
1.5805602 9.1125336 -0.16143475 34
0.81414604 4.6938629 1.2764956 22
0.2651625 1.4931417 -0.4063459 23
1.6513931 9.2990665 0.16485544 84
0.30257675 1.703823 -0.39951307 4
1.6511272 9.2975693 0.49488881 68
0.3511728 1.9774694 -0.39039519 2
1.6491917 9.2866707 0.82519054 45
0.41516721 2.3378248 -0.37606844 1
1.64454 9.2604761 1.1548339 42
1.6608534 9.3523388 -1.1662896 4
1.6440898 9.2579422 1.4892561 30
1.6551141 9.3200197 -0.82815385 12
1.6429257 9.2513866 1.8264236 22
1.6514764 9.2995358 -0.49499348 4
0.84230822 4.7430749 1.1121581 11
1.6174771 9.1080847 -0.16146967 27
0.83433294 4.6981654 1.2785661 24
0.27080065 1.496056 -0.40738118 26
0.30683675 1.6951399 -0.39771345 4
1.6872861 9.3215227 0.49645889 14
0.36192462 1.9994763 -0.39497462 2
1.6895599 9.3340845 0.82989699 11
0.42362112 2.3403227 -0.3766942 1
1.6879685 9.3252926 1.1636084 14
0.53142369 2.935885 -0.36633924 1
1.6870958 9.3204718 1.5002065 11
1.7016257 9.4007425 -0.8358236 2
1.6872331 9.3212299 1.8413068 10
1.6919107 9.3470726 -0.4978196 2
0.85525542 4.7249146 1.1085588 1
1.6590693 9.165637 -0.16258661 19
0.89119911 4.9234881 1.3406826 18
0.27646106 1.4989494 -0.40841645 30
3.8903155 21.092976 0.37438902 73
0.31174946 1.6902802 -0.39681366 4
4.4492488 24.123465 1.2855804 20
0.36392397 1.9731662 -0.39001358 2
5.3064218 28.770988 2.5595899 18
0.43352932 2.3505609 -0.37857139 1
5.1606092 27.980406 3.4935067 72
0.53611577 2.9067762 -0.3629269 1
5.3295445 28.896357 4.6539254 48
0.69998223 3.7952468 -0.33764136 1
5.3417058 28.962296 5.7246513 18
4.5687938 24.771629 -1.3201221 6
4.8144436 26.103523 6.1281166 17
1.6967086 9.1994162 -0.16328472 20
0.91067463 4.937604 1.3453414 28
0.27883548 1.4827867 -0.40427536 33
4.2373958 22.53355 0.40021858 13
0.32268977 1.7159941 -0.40311229 4
4.5352736 24.117601 1.2861038 40
0.3726235 1.981531 -0.39192167 2
5.3965092 28.697464 2.5547092 17
0.4446522 2.3645639 -0.38107437 1
5.2582479 27.962221 3.4935067 48
0.54552531 2.9009852 -0.36243942 1
5.4223475 28.834867 4.6470423 43
5.4405937 28.931896 5.7223616 35
4.6448998 24.700569 -1.3171914 6
4.8947282 26.029102 6.1146197 34
1.7450709 9.2799082 -0.16482052 20
0.92647642 4.9268007 1.3432709 27
0.28426829 1.4817547 -0.40427536 27
0.32750839 1.7071445 -0.40131268 4
4.608963 24.024319 1.2820216 30
0.38099337 1.9859363 -0.39306653 2
0.45406014 2.3667984 -0.3817001 1
5.3517227 27.895971 3.4876568 36
0.56887066 2.9652507 -0.37072656 1
5.5198083 28.77212 4.6401591 43
5.535501 28.853918 5.7109132 44
4.731638 24.663765 -1.3161446 6
4.9849567 25.984194 6.1083207 34
1.7933887 9.3480778 -0.1661469 12
0.94088805 4.9043994 1.3380945 24
0.28943887 1.4807534 -0.40427536 25
0.33421311 1.709816 -0.40221247 4
4.6774693 23.929678 1.2778347 19
0.39055964 1.9980818 -0.39573786 2
0.45625585 2.3341799 -0.3766942 1
5.4452572 27.857639 3.4852195 12
0.56855506 2.9086967 -0.36390185 1
5.6156607 28.729412 4.6364045 48
5.6271472 28.788177 5.7017546 53
4.8192339 24.654938 -1.3165634 6
5.0666556 25.920734 6.0975232 17
1.8417369 9.422225 -0.16757801 8
0.95614886 4.8916054 1.3355063 9
0.29611474 1.4873127 -0.4063459 23
0.33713534 1.6933491 -0.39861327 4
4.7520013 23.868153 1.2754272 19
0.39829856 2.0005572 -0.39650109 2
0.47057232 2.3635707 -0.3817001 1
0.58645713 2.945632 -0.36877662 1
5.7105107 28.682512 4.6320243 39
5.7222352 28.741404 5.6964116 44
5.1552024 25.893333 6.095274 5
0.97925335 4.9185524 1.3437885 2
0.30130464 1.48627 -0.4063459 26
0.34226981 1.6883422 -0.39771345 4
4.8261609 23.806398 1.2730198 29
0.40059859 1.9760653 -0.39192167 2
0.47646499 2.3502977 -0.37982288 1
5.8040733 28.630226 3.5868585 30
0.59279168 2.9241118 -0.36633924 1
5.7120852 28.17647 4.5534945 46
5.5631323 27.441717 5.442636 8
5.2517505 25.905739 6.1024723 5
5.8046241 28.632944 7.8282409 29
0.30623165 1.4852626 -0.4063459 25
4.7450991 23.014339 0.41016644 7
0.3486537 1.6910151 -0.39861327 5
4.9034657 23.782438 1.2726011 9
0.40635636 1.9708804 -0.39115843 2
0.48266068 2.3409662 -0.37857139 1
5.8969784 28.601099 3.5856397 36
0.60248512 2.9221299 -0.36633924 1
5.870111 28.470791 4.6041794 34
0.77931041 3.7797554 -0.33764136 1
5.6636167 27.469265 5.4517946 8
5.3384151 25.891998 6.1033721 5
5.8886199 28.56056 7.8137469 14
0.31022418 1.4785126 -0.40479299 28
4.836082 23.048519 0.41107398 7
0.35695535 1.701231 -0.40131268 3
5.0487933 24.06229 1.2885113 10
0.41403985 1.9732928 -0.39192167 2
0.4859615 2.3160677 -0.37481698 1
5.9270725 28.248125 3.5439606 18
0.61594266 2.9355514 -0.36828914 1
5.9098272 28.165936 4.5581875 21
5.9001684 28.119902 5.5849791 17
5.4343653 25.899908 6.1096706 5
5.8887057 28.065269 7.6838198 23
0.31633434 1.4831438 -0.4063459 30
0.36096889 1.6924145 -0.39951307 3
5.1660542 24.221214 1.2979317 10
0.42344791 1.9853494 -0.394593 2
0.49446329 2.3183074 -0.37544271 1
6.0016665 28.139009 3.5327485 24
0.6265021 2.9373755 -0.36877662 1
5.9900107 28.084362 4.5481758 25
5.9815087 28.0445 5.5739121 25
5.6840405 26.649811 6.2909813 18
5.9781141 28.028584 7.6791611 14
0.32150954 1.4820306 -0.4063459 16
0.36604804 1.6873353 -0.39861327 4
5.2971482 24.417738 1.3094456 10
0.43204039 1.9915336 -0.39611948 2
6.0217447 27.757839 2.4849846 16
0.50339025 2.3204281 -0.37606844 1
6.0855441 28.051929 3.5244615 18
0.63254309 2.915771 -0.36633924 1
6.0972204 28.105751 4.555059 17
6.1284804 28.249847 5.6189432 25
5.767942 26.58791 6.2810831 24
5.3468528 24.646856 -0.44021949 8
5.7662835 26.580265 7.2878265 9
0.32876161 1.4903318 -0.40893409 10
0.37361488 1.6936592 -0.40041289 4
5.3999901 24.479065 1.3137372 10
0.43476033 1.9708419 -0.39230329 2
6.1186008 27.736649 2.4849846 16
0.5165934 2.3418047 -0.37982288 1
6.2283273 28.234056 3.5500541 6
0.64870387 2.9406841 -0.3697516 1
6.1710353 27.974344 4.5372252 4
6.2418556 28.295383 5.6322999 8
5.4417233 24.668251 -1.3238903 6
5.8514805 26.525747 6.2711854 24
5.6388855 25.562019 7.0139961 4
0.33184814 1.4797499 -0.4063459 8
0.37781885 1.6847386 -0.39861327 3
5.4950199 24.502941 1.3160399 64
0.44163719 1.9693122 -0.39230329 2
6.1935835 27.617918 2.476269 16
0.52303559 2.3322773 -0.37857139 1
6.3520389 28.32449 3.5641909 36
0.64680201 2.8841662 -0.3629269 1
6.2725368 27.96998 4.540041 29
6.358201 28.351967 5.6479464 26
5.941052 26.49185 6.2680364 30
5.9495931 26.529936 7.2852383 4
0.33855841 1.4841741 -0.40789881 8
0.38485798 1.6871425 -0.39951307 4
5.5870118 24.492373 1.3165634 10
0.45016199 1.9734226 -0.39344814 2
0.53333759 2.3380482 -0.37982288 1
6.4037156 28.072643 3.5354297 6
0.65913463 2.8895178 -0.36390185 1
6.3649054 27.902506 4.532845 4
6.4594536 28.316988 5.6456566 8
6.0329089 26.447098 6.2626371 30
5.517333 24.186914 -0.43302912 8
5.8053312 25.449442 6.9943256 4
0.34504572 1.4886291 -0.40945172 8
5.4414334 23.47595 0.42063791 7
0.39074486 1.6857888 -0.39951307 4
5.813179 25.079771 1.349221 11
0.45660448 1.9699267 -0.39306653 2
0.53971148 2.3284748 -0.37857139 1
0.68176752 2.9413464 -0.37072656 1
6.4595885 27.868572 4.5309677 4
6.5369802 28.202465 5.6273389 8
6.1177092 26.393604 6.2549891 24
5.6044369 24.179197 -0.43323854 8
6.1205263 26.40576 7.26298 52
0.34732556 1.4761938 -0.4063459 8
5.5192523 23.457777 0.42063791 7
0.3945477 1.676896 -0.39771345 3
6.4681063 27.49057 1.4800608 14
0.4631345 1.9684017 -0.39306653 2
6.4596367 27.454575 2.4675534 16
0.54381067 2.3112893 -0.37606844 1
6.6114721 28.099899 3.5444479 24
0.68333399 2.9042876 -0.36633924 1
6.5913291 28.014288 4.5581875 25
6.607985 28.085079 5.6082578 8
6.2016292 26.357998 6.25139 24
0.35337436 1.4787302 -0.40738118 8
5.6931286 23.823465 0.42754906 8
0.40130463 1.6792992 -0.39861327 4
6.5528855 27.421204 1.4775487 14
0.47182792 1.974411 -0.394593 2
6.5554318 27.431858 2.4675534 16
0.55738479 2.3324323 -0.37982288 1
6.715517 28.101749 3.5476165 36
0.68977654 2.8864388 -0.36438933 1
6.7083607 28.071804 4.5713282 42
6.719213 28.117216 5.6193247 34
6.2849922 26.300177 6.2428417 36
6.2947335 26.340939 7.2567682 8
0.35671166 1.4699782 -0.40531063 8
4.9524217 20.408506 0.36657035 16
0.40808314 1.6816758 -0.39951307 4
5.7984176 23.894785 1.2886159 10
0.47825405 1.9708441 -0.39421138 2
0.56552315 2.3304725 -0.37982288 1
6.8079519 28.054989 3.5446918 36
0.7035929 2.8994462 -0.36633924 1
6.7983894 28.015581 4.566009 42
6.8173194 28.093592 5.6193247 43
6.3703251 26.251566 6.2365432 36
6.6914186 27.574764 7.6030684 23
0.36091644 1.4649726 -0.40427536 8
5.8750935 23.847214 0.42870092 56
0.41768008 1.6953784 -0.40311229 4
5.8827462 23.878277 1.2888253 70
0.48653957 1.9748814 -0.39535624 2
0.56987429 2.3131402 -0.37731993 1
6.898243 28.000214 3.540792 36
0.71750844 2.9123924 -0.36828914 1
6.8914151 27.9725 4.5628805 46
6.9040713 28.023872 5.6101661 34
6.4549289 26.200787 6.2297945 24
6.4549046 26.200687 7.2303686 4
0.36555928 1.4618297 -0.40375772 8
5.95927 23.830441 0.42877072 97
0.41886789 1.6750048 -0.39861327 3
5.9578242 23.824657 1.2870458 70
0.49152508 1.9655527 -0.39382976 2
0.581779 2.3264678 -0.37982288 1
6.9872713 27.941299 3.5364046 36
0.72381753 2.8944635 -0.36633924 1
6.9799099 27.911863 4.5569358 42
6.9970884 27.980556 5.6063499 34
6.5378375 26.144066 6.2216964 30
6.8715768 27.478651 7.5896096 23
0.37778786 1.4886322 -0.41152227 8
6.0547152 23.85795 0.42964333 24
0.42567092 1.6773102 -0.39951307 3
6.0507774 23.842434 1.2891393 10
0.50224656 1.9790484 -0.39688271 2
0.58212173 2.2937877 -0.37481698 1
7.0759726 27.882105 3.5320172 36
0.74270612 2.9265532 -0.37072656 1
7.0758405 27.881584 4.5559974 59
7.0918183 27.944544 5.6040602 34
6.620429 26.087086 6.2135983 29
6.6243553 26.102556 7.2158751 4
0.38057315 1.4779502 -0.40893409 8
6.1838341 24.01483 0.43285459 24
0.43055132 1.6720397 -0.39861327 4
6.184269 24.016518 1.2997111 10
0.50131857 1.9468634 -0.39077681 2
7.168324 27.838081 2.514966 34
0.59603614 2.3146975 -0.37857139 2
7.1688013 27.839933 3.5298238 42
0.74400693 2.8893399 -0.36633924 1
7.1593299 27.803152 4.5472369 51
7.179039 27.879692 5.5960464 51
6.7061043 26.043058 6.2086492 29
6.4504743 25.050322 6.9311738 8
0.38377678 1.4691362 -0.40686354 10
6.0108743 23.010233 0.41512293 7
0.43835536 1.6780685 -0.40041289 3
7.2741251 27.846085 1.5083222 29
0.51158476 1.9583982 -0.39344814 2
7.2629356 27.803251 2.5140946 34
0.60610938 2.3202479 -0.37982288 1
7.2639298 27.807058 3.5288486 30
0.75408804 2.8867252 -0.36633924 1
7.248848 27.749323 4.5425439 17
1.6568847 6.3427219 1.5134706 1
1.6205536 6.2036428 1.7180408 2
0.38890269 1.4677877 -0.40686354 8
1.6691402 6.2996311 0.11375479 1
0.44720492 1.6878307 -0.40311229 4
1.6604567 6.2668581 0.33976504 2
0.5209319 1.9660894 -0.39535624 2
1.6502846 6.228467 0.56372333 9
1.6690788 6.2993999 -1.0321546 3
1.6533921 6.2401953 0.79263818 25
1.6783049 6.3342204 -0.8045814 2
1.6544068 6.2440248 1.0230814 29
1.6712066 6.3074303 -0.5708701 2
1.6528022 6.2379689 1.2543783 61
1.6609682 6.2687883 -0.33986971 14
1.6624821 6.2745023 -0.11330102 18
0.39101604 1.4552271 -0.40375772 8
1.6822984 6.2609363 0.1131614 43
0.45005971 1.6749674 -0.40041289 4
1.6828402 6.2629523 0.33986971 52
0.52779168 1.964259 -0.39535624 2
1.6771861 6.24191 0.56546646 42
1.6849066 6.2706428 -1.0284002 3
1.6731039 6.2267175 0.79166323 45
1.6895877 6.2880645 -0.79946291 15
1.6772176 6.2420268 1.0237072 55
1.6875263 6.2803926 -0.56895268 17
1.6674345 6.2056174 1.2490357 53
1.6843951 6.2687387 -0.34018371 64
1.6707834 6.218081 1.4864765 52
1.6822984 6.2609363 -0.1131614 46
1.6633221 6.1903124 1.7175232 55
0.40218708 1.4762204 -0.40996936 8
1.702566 6.2492375 0.11305669 45
0.45487919 1.6696258 -0.39951307 4
1.7004917 6.2416239 0.33903232 56
0.53309679 1.956722 -0.39421138 2
1.6994879 6.2379398 0.56564075 52
1.7099004 6.2761583 -1.0302774 5
1.6953509 6.2227545 0.79190701 58
1.7104832 6.2782974 -0.79897541 15
1.690688 6.2056398 1.0187012 54
1.7094387 6.2744637 -0.56895268 15
1.6906341 6.205442 1.2501805 61
1.7041668 6.2551131 -0.33976504 73
1.6888926 6.1990499 1.4833273 53
1.7041429 6.2550259 -0.1131614 50
1.6859357 6.1881967 1.7185584 55
0.40425172 1.4636347 -0.40686354 8
1.7243695 6.2432566 0.11305669 49
0.4617421 1.6717846 -0.40041289 4
1.7158879 6.2125478 0.33777627 46
0.53940111 1.9529569 -0.39382976 2
1.7175391 6.2185259 0.56442058 43
1.730746 6.2663436 -1.0296516 5
1.7144195 6.2072315 0.79068828 63
1.7265748 6.2512407 -0.79629427 18
1.7091841 6.1882758 1.016824 50
1.7318608 6.2703791 -0.56912702 7
1.7096715 6.1900406 1.2482724 57
1.7233322 6.2395005 -0.33924165 78
1.7063706 6.1780891 1.479728 55
1.7206429 6.229764 -0.11281236 46
1.7080406 6.1841359 1.7190762 57
0.40623343 1.4510528 -0.40375772 8
1.745613 6.2352738 0.11302178 48
0.46967638 1.6776689 -0.40221247 4
1.7370249 6.204597 0.33767158 48
0.54674417 1.9529527 -0.39421138 3
1.7376239 6.206737 0.56389767 46
1.762195 6.2945042 -1.0352833 3
1.7376819 6.206944 0.79141951 57
1.7515962 6.2566452 -0.79775673 18
1.7345026 6.1955876 1.0190141 54
1.7505151 6.2527838 -0.56808114 10
1.7466174 6.2388616 1.2593393 52
1.750486 6.2526798 -0.3402884 90
1.742636 6.2246399 1.4923253 49
1.7450739 6.2333479 -0.11298688 53
1.7483661 6.2451077 1.7377111 55
0.41235068 1.4533429 -0.40479299 8
1.7826505 6.2830076 0.11399912 48
0.47552967 1.6760193 -0.40221247 3
1.7799335 6.2734313 0.34175378 50
0.55462968 1.9548097 -0.39497462 2
1.7804881 6.2753863 0.57069582 48
0.65456802 2.3070455 -0.37982288 2
1.7820946 6.2810483 0.80165654 51
1.7956405 6.3287911 -0.80774999 15
1.7744509 6.254108 1.0296516 50
1.7881017 6.3022203 -0.57313615 7
1.7737432 6.2516136 1.2631556 27
1.792472 6.3176241 -0.34416124 100
1.772864 6.2485147 1.4995238 13
1.7870171 6.2983975 -0.11427835 37
0.4163537 1.4481814 -0.40375772 10
1.8051239 6.2786684 0.11403403 12
0.48030028 1.6706034 -0.40131268 4
0.56253481 1.9566355 -0.39573786 2
0.66261715 2.3047466 -0.37982288 1
0.81122798 2.8216522 -0.36048952 1
7.885251 27.426859 5.5471992 42
7.3762708 25.656498 6.163209 35
7.753253 26.967737 7.5186934 18
0.42788944 1.4689764 -0.40996936 8
5.9094648 20.287636 0.36883914 5
0.48285893 1.6576908 -0.39861327 4
0.56716508 1.9471202 -0.39421138 2
0.66844839 2.2948334 -0.37857139 1
7.832665 26.890125 3.4389091 5
0.8399477 2.8836033 -0.36877662 1
7.8236084 26.859034 4.4308496 8
7.9688616 27.357698 5.5388036 25
7.4592438 25.608143 6.1578102 35
5.9357491 20.377871 -0.37047967 6
7.4745584 25.660719 7.1615229 4
0.4321765 1.4636927 -0.40893409 8
5.9730239 20.229401 0.36817595 26
0.49224246 1.6671237 -0.40131268 4
5.9595256 20.183683 1.1029279 12
0.57485378 1.9469112 -0.394593 2
5.972641 20.228104 1.8452613 6
0.68356752 2.3151023 -0.38232583 1
8.0424719 27.238195 3.4871695 18
0.85275954 2.8881207 -0.3697516 1
8.0377922 27.222343 4.4956136 24
8.0607395 27.300064 5.5330791 16
7.54036 25.537643 6.1474624 29
7.9318066 26.863394 7.5052347 18
0.43396199 1.4510701 -0.40582827 8
0.50029224 1.6728635 -0.40311229 4
0.58670896 1.9618213 -0.39802757 2
6.0352216 20.180407 1.842821 6
0.68485266 2.2899914 -0.37857139 1
8.1466026 27.240385 3.4910693 72
8.2125807 27.461002 -3.5193429 4
8.1384268 27.213047 4.4987426 61
8.1357355 27.204046 5.519341 8
7.6272235 25.5037 6.1456628 35
7.6247783 25.495523 7.1304646 4
0.4368405 1.4441522 -0.40427536 8
0.50328833 1.6638224 -0.40131268 4
0.58377445 1.9299017 -0.39192167 2
0.70005059 2.3142993 -0.38295156 1
8.2327156 27.216558 3.491313 100
8.2919149 27.412266 -3.516418 4
8.2221632 27.181673 4.4978037 74
8.2024012 27.116341 5.5067477 8
7.6954594 25.440441 6.1362147 34
7.7031593 25.465897 7.128912 26
0.44244465 1.4444658 -0.40479299 10
0.50795162 1.6583289 -0.40041289 4
0.59568238 1.9447467 -0.39535624 2
0.70002526 2.285399 -0.37857139 1
8.3131342 27.140203 3.4852195 72
8.3852253 27.375561 -3.5154431 4
8.3060026 27.116919 4.4918594 61
8.2901049 27.065018 5.5021682 8
7.7762256 25.387339 6.1299162 40
7.7869129 25.422228 7.1242533 17
0.45320639 1.4613642 -0.40996936 8
0.51258272 1.6528231 -0.39951307 4
0.60421175 1.948281 -0.39650109 2
0.71150929 2.2942619 -0.38044861 2
8.4025288 27.093956 3.4830258 12
0.89670092 2.8914123 -0.37170151 1
8.3965111 27.074554 4.4896693 12
2.2523623 7.262743 1.7555181 1
2.2638705 7.2998514 -0.13340619 3
2.2425704 7.2311692 2.0286236 7
0.45599008 1.4524007 -0.40789881 8
2.2845461 7.2766414 0.13312696 12
0.51834905 1.6510237 -0.39951307 4
2.2829592 7.2715869 0.39942801 24
0.60395199 1.9236828 -0.39192167 2
2.2887323 7.2899747 0.66848457 39
2.2999578 7.3257298 -1.2161216 5
2.2803497 7.2632756 0.93473786 43
2.3023505 7.3333511 -0.94375622 14
2.2798398 7.261651 1.205484 34
2.2994747 7.3241911 -0.67162216 10
2.2787867 7.258297 1.4787697 61
2.2937279 7.3058872 -0.40131211 61
2.2923329 7.3014441 -0.13358071 47
2.2677984 7.2232971 2.0286236 33
0.45988691 1.4471178 -0.40686354 10
2.3172002 7.291492 0.13354582 52
0.52646989 1.6566333 -0.40131268 4
2.3089328 7.2654772 0.39953268 60
0.60709554 1.9103366 -0.38963196 2
2.3069239 7.2591558 0.6663928 52
2.3261135 7.3195395 -1.2164344 5
2.3050883 7.2533793 0.93449414 61
2.3213212 7.3044596 -0.94107509 19
2.3009858 7.2404704 1.2032939 55
2.3208027 7.3028283 -0.67040199 15
2.3005414 7.2390718 1.47648 53
2.320426 7.3016429 -0.40152144 71
2.2947476 7.2208409 1.7492194 57
2.312355 7.2762456 -0.13326657 54
2.2906582 7.2079725 2.0265532 40
0.45902029 1.4271131 -0.40168715 8
2.338352 7.2700334 0.13330148 52
0.53224939 1.6547854 -0.40131268 4
2.3336685 7.2554717 0.39942801 56
0.62097383 1.9306333 -0.39421138 2
2.3285887 7.2396784 0.66534692 43
2.3425767 7.2831678 -1.2117413 5
2.3322167 7.2509584 0.93522537 67
2.3431575 7.2849736 -0.93961263 16
2.3262458 7.2323942 1.2032939 51
2.3371294 7.266232 -0.66778731 15
2.3227906 7.2216525 1.4745719 59
2.341007 7.2782879 -0.40068409 57
2.3169556 7.2035108 1.7469699 55
2.3371274 7.2662258 -0.13323167 47
2.3098896 7.1815419 2.0213768 50
0.46614072 1.4329314 -0.40375772 8
2.3556428 7.2413216 0.13291752 49
0.53291118 1.6381861 -0.39771345 3
2.3583336 7.2495928 0.39953268 51
0.63101661 1.9397652 -0.39650109 2
2.3531997 7.2338114 0.66552126 42
2.3722153 7.2922659 -1.2145572 5
2.3476517 7.2167563 0.931813 60
2.372215 7.2922649 -0.94156253 16
2.34655 7.2133698 1.2014167 47
2.3692248 7.2830725 -0.67005336 5
2.3394377 7.1915069 1.4699925 52
2.3651299 7.2704849 -0.40068409 52
2.3498731 7.2235851 1.7537184 52
2.3655405 7.2717471 -0.133476 50
2.3510225 7.2271185 2.0363882 51
0.47476387 1.4423056 -0.40686354 8
2.4046645 7.305233 0.13424391 54
0.53862631 1.6363159 -0.39771345 4
2.4042327 7.3039212 0.40298685 65
0.63962531 1.9431452 -0.39764595 2
2.4058461 7.3088231 0.67319095 50
2.4297726 7.3815103 -1.2308264 1
2.3995175 7.289597 0.94229376 61
2.4231029 7.3612485 -0.95155585 14
2.4013615 7.2951989 1.2164344 40
2.4176822 7.3447804 -0.67650288 2
2.3927634 7.2690787 1.4875469 23
2.4123509 7.3285837 -0.4043476 16
2.3921344 7.2671676 1.7663157 13
2.4184196 7.3470206 -0.13501182 22
0.47857472 1.4369738 -0.40582827 10
0.54556632 1.6381235 -0.39861327 4
0.63771939 1.9148233 -0.39230329 2
0.76025122 2.2827387 -0.38107437 1
8.8492422 26.570833 3.4386654 35
8.988492 26.988945 -3.4927754 9
8.9089212 26.750025 4.4655781 94
8.895752 26.710484 7.54354 23
0.4811205 1.4279716 -0.40375772 8
6.6089373 19.615408 0.36129972 5
0.55501443 1.6472896 -0.40131268 3
0.6437726 1.910725 -0.39192167 2
6.6541319 19.749544 1.8232981 6
0.77073771 2.287559 -0.38232583 1
8.9134159 26.455128 3.4276972 35
9.0820122 26.955523 -3.4925315 4
8.9965649 26.701916 4.4627624 100
8.1534081 24.199417 4.9637051 14
9.0071621 26.733368 6.5127831 6
8.9932528 26.692083 7.5471635 32
0.48859495 1.4335977 -0.40582827 8
6.6876893 19.622503 0.36185819 5
0.56201845 1.6490313 -0.40221247 3
6.7085352 19.683668 1.089844 5
0.6542384 1.919616 -0.39421138 2
0.76597309 2.2474594 -0.37606844 1
8.9941807 26.390032 3.4233098 35
9.1645222 26.889835 -3.4881444 4
9.0827074 26.649782 4.459321 74
8.2302303 24.148508 4.959126 14
9.0979099 26.694387 6.5109835 12
8.5747166 25.159275 7.1221824 13
0.48918906 1.4190987 -0.40220478 8
6.7457166 19.56879 0.36129972 5
0.5626905 1.6323206 -0.39861327 4
0.66285461 1.9228888 -0.39535624 2
0.77638865 2.2522421 -0.37731993 2
9.0745993 26.324694 3.4189227 35
9.2505665 26.835161 -3.4852195 4
9.1769648 26.621651 4.4599466 100
8.3042374 24.089935 4.9530201 14
9.1904001 26.660624 6.5105333 12
9.1743412 26.614038 7.5430222 37
0.49986327 1.4338001 -0.40686354 8
6.8067422 19.524355 0.36091575 10
0.56966799 1.6340269 -0.39951307 3
0.66503859 1.9075865 -0.39268491 2
0.78424567 2.2495182 -0.37731993 1
9.1559782 26.262867 3.4150229 35
9.3369932 26.782089 -3.4825385 9
9.2639837 26.572668 4.4571309 100
8.3882761 24.060802 4.9530201 14
9.272501 26.597099 6.5028849 12
8.6776524 24.890842 7.0631719 38
0.50614977 1.4356904 -0.40789881 8
6.8715291 19.491045 0.36074123 15
0.57536834 1.6320283 -0.39951307 4
6.8810868 19.518156 1.0846103 5
0.66908222 1.8978472 -0.39115843 2
0.80128831 2.2728488 -0.3817001 1
9.2383566 26.204536 3.4116104 35
9.4178829 26.713762 -3.4779074 4
9.3409204 26.495457 4.4496222 74
8.4663382 24.014711 4.9495854 21
8.4516945 23.973173 5.8685231 10
8.759346 24.845825 7.0590305 38
0.50856346 1.4266361 -0.40582827 8
6.9469094 19.487659 0.3611252 10
0.58367908 1.6373523 -0.40131268 4
6.9585652 19.520357 1.0860758 5
0.68229508 1.9139928 -0.39497462 2
6.973711 19.562845 1.8170229 6
0.80523741 2.2588739 -0.37982288 2
9.3197727 26.144081 3.4079542 35
1.0018322 2.8103671 -0.36633924 1
9.380949 26.315695 4.4249053 28
8.5428619 23.96467 4.9453874 28
8.5281267 23.923334 5.863574 16
8.8369389 24.789621 7.0517836 51
0.50830007 1.4103129 -0.40168715 8
7.0182819 19.472698 0.36129972 5
0.58939093 1.635305 -0.40131268 4
0.68564367 1.9023647 -0.39306653 2
0.80240089 2.2263155 -0.37481698 2
9.4082842 26.10392 3.4069793 34
1.0224054 2.8367331 -0.37023908 1
9.3923769 26.059786 4.387361 28
8.618474 23.91254 4.9408083 28
8.6142263 23.900753 5.8653736 32
0.51586533 1.4157904 -0.40375772 8
0.59109271 1.6222517 -0.39861327 4
7.0850997 19.445028 1.0846103 5
0.6929521 1.9018044 -0.39344814 2
4.6136622 12.662178 1.1790429 2
0.81828249 2.2457733 -0.37857139 1
9.4952688 26.059729 3.4055169 28
1.0363787 2.8443377 -0.37170151 1
9.4907246 26.047258 4.3908024 28
4.6238937 12.690258 -1.1816576 3
8.694499 23.862019 4.9366102 42
8.6895971 23.848566 5.8599749 37
9.5071335 26.092293 7.4410477 27
0.51922268 1.4104462 -0.40272245 10
7.124414 19.353167 0.35997334 5
0.59512264 1.6166252 -0.39771345 4
0.70603716 1.9179199 -0.39726433 2
4.6453018 12.618764 1.1764282 47
0.82572526 2.2430475 -0.37857139 1
9.5686035 25.992704 3.4008858 34
1.037576 2.8185308 -0.36877662 1
9.5333729 25.897001 4.370779 68
4.6680155 12.680465 -1.1821805 6
8.7681541 23.818317 4.9335575 56
8.759882 23.795845 5.8541265 43
9.6883745 26.318056 7.5145521 27
0.53332448 1.4340663 -0.40996936 8
7.1801877 19.306942 0.35955447 5
0.60455596 1.6256019 -0.40041289 4
7.2139072 19.397612 1.0846103 5
0.70281267 1.8898063 -0.39192167 2
4.6926775 12.618229 1.1778227 31
0.84142166 2.2625146 -0.38232583 1
9.5108213 25.573828 3.3501883 17
9.6810398 26.031532 -3.4101479 4
9.7575989 26.237394 4.4336658 44
4.7218461 12.696661 -1.1851438 13
8.8450375 23.783588 4.9324126 70
8.8305922 23.744747 5.8487272 43
9.7648211 26.256813 7.5062699 41
0.53332132 1.4196308 -0.4063459 8
7.2793345 19.376623 0.36129972 5
0.60994333 1.6235882 -0.40041289 4
7.278192 19.373583 1.0846103 5
0.71528953 1.9040059 -0.39535624 2
4.747808 12.638036 1.1811346 47
0.84753042 2.2560136 -0.3817001 1
9.5418196 25.399059 3.3314204 11
9.6137257 25.590464 -3.3565254 4
9.8431625 26.201193 4.4330397 64
4.776536 12.714505 -1.1882814 23
8.9224777 23.750452 4.9316492 91
8.9079132 23.711685 5.8478274 43
9.8389292 26.189926 7.4964347 18
0.53371888 1.4050249 -0.40272245 8
4.8578334 12.788337 0.23878382 66
0.61450595 1.6176983 -0.39951307 3
0.72017175 1.8958656 -0.39421138 2
4.8032947 12.644762 1.1834006 60
0.85158461 2.2418122 -0.37982288 2
9.6369629 25.369484 3.3321517 5
9.7215528 25.592169 -3.3614001 4
9.9335165 26.150167 4.4305367 92
4.8266425 12.706225 -1.189153 20
8.9997072 23.691895 4.9263067 82
8.9926853 23.67341 5.846478 48
9.9348545 26.153688 7.4964347 32
0.54252714 1.4140692 -0.40582827 10
4.8959165 12.760956 0.2385744 100
0.61567873 1.604735 -0.39681366 3
4.9013987 12.775244 0.7171073 60
0.72504818 1.8898009 -0.39344814 2
0.85052294 2.2168443 -0.37606844 1
9.7309933 25.363333 3.3355639 5
9.7864561 25.507896 -3.3545756 4
10.009565 26.089418 4.4258437 80
4.8887343 12.742235 -1.1940336 6
9.0711899 23.643591 4.9224906 89
9.0676498 23.634363 5.8442283 48
9.0188217 23.507097 6.746377 12
0.54655492 1.4083736 -0.40479299 8
0.62465602 1.6096262 -0.39861327 4
0.73229915 1.8870031 -0.39344814 2
4.9174418 12.671362 1.189153 28
0.86474603 2.2282948 -0.37857139 1
9.8685274 25.429417 3.3492134 5
9.8742723 25.444221 -3.3511631 4
10.109668 26.050793 4.4258437 76
4.957087 12.77352 -1.1987401 3
9.1562252 23.593945 4.9194374 82
9.1491661 23.575754 5.8383799 53
10.112664 26.058514 7.4897056 37
0.55122226 1.4065535 -0.40479299 8
7.4926982 19.119112 0.35843754 5
0.63141245 1.6111746 -0.39951307 3
7.5251083 19.201813 1.0808421 5
0.72852385 1.8589737 -0.38810548 2
4.9681582 12.677246 1.1912447 21
0.86636442 2.2107015 -0.37606844 1
10.033923 25.603554 3.3765121 5
9.9499025 25.38916 -3.3482382 4
10.18735 25.995054 4.4220896 92
5.0226817 12.816373 -1.204318 3
9.2344151 23.563452 4.9194374 82
9.2216082 23.530769 5.8347802 53
10.187743 25.996058 7.4814234 18
0.54570174 1.3775827 -0.39702842 3
7.5560946 19.074789 0.35812339 10
0.64018422 1.6160966 -0.40131268 3
7.5851378 19.148108 1.0793768 5
0.74256283 1.8745437 -0.39192167 2
5.0285311 12.694146 1.1945566 21
0.88319129 2.2295496 -0.37982288 2
10.108689 25.518621 3.3701749 5
10.031195 25.322992 -3.3443384 4
10.276738 25.942848 4.4195867 100
5.0754924 12.812696 -1.2057126 3
9.3178253 23.522146 4.9179111 75
9.3049202 23.489565 5.8329806 53
10.282244 25.956747 7.4809055 37
0.41467312 1.0367568 -0.29919481 1
7.6230206 19.05891 0.35829791 5
0.63685548 1.5922523 -0.39591387 1
7.6485939 19.122849 1.0793768 5
0.7509622 1.8775395 -0.39306653 2
5.0861368 12.716249 1.1982172 31
0.88764554 2.2192721 -0.37857139 1
10.231591 25.580803 3.3828492 5
1.1080108 2.7702246 -0.36633924 1
10.35611 25.89212 4.4167705 84
5.1297913 12.825394 -1.2085016 3
9.3884859 23.472889 4.9140949 68
9.3726311 23.433249 5.8266821 47
10.35535 25.890221 7.4715881 23
0.37921062 0.9385792 -0.27124235 4
7.6692762 18.982124 0.35735548 9
0.40880612 1.0118306 -0.25194517 1
7.7527075 19.188625 1.0846103 5
0.76413053 1.8912894 -0.39650109 1
5.1394501 12.720586 1.2003089 15
0.89094692 2.2051709 -0.3766942 1
10.308924 25.515482 3.3789494 5
1.1340337 2.8068318 -0.37170151 1
10.443466 25.848486 4.4155192 100
9.4541845 23.399927 4.9056993 48
9.4426908 23.371481 5.8194838 36
10.450726 25.866455 7.4752116 41
0.37940249 0.93016142 -0.2691718 12
5.2398782 12.846338 0.24216959 99
0.39007926 0.95633709 -0.23844811 2
5.2267056 12.814043 0.7252717 3
5.2041793 12.758818 1.2055383 11
10.382984 25.455423 3.3755372 5
10.520919 25.793592 4.4120774 100
9.5346956 23.375719 4.9072256 48
9.5245581 23.350864 5.8221831 52
10.528419 25.811979 7.4695177 32
0.38722616 0.93948114 -0.27227762 13
0.3846705 0.93328059 -0.23304929 9
7.8316808 19.001081 1.0770739 5
0.41222408 1.0001305 -0.21027151 1
5.2600188 12.761762 1.2076299 22
10.471674 25.406185 3.3740747 5
10.607106 25.73477 4.4086361 100
9.613574 23.32428 4.903791 41
9.598197 23.286972 5.8149848 47
10.617064 25.758928 7.4653764 41
0.3806923 0.91500461 -0.26554835 18
7.8643336 18.902145 0.35735548 19
0.38926041 0.93559831 -0.2339491 13
7.900785 18.989758 1.0779114 5
0.39065132 0.93894136 -0.19767812 9
5.313024 12.770002 1.2100704 8
0.40520439 0.97392011 -0.16707201 1
10.560442 25.382317 3.3755372 5
10.687076 25.686686 4.406446 100
9.6901131 23.290459 4.9034095 34
9.6738701 23.251417 5.814085 47
