# .PCD v0.7 - Point Cloud Data file format
VERSION 0.7
FIELDS x y z intensity
SIZE 4 4 4 4
TYPE F F F F
COUNT 1 1 1 1
WIDTH 1307
HEIGHT 1
VIEWPOINT 0 0 0 1 0 0 0
POINTS 1307
DATA ascii
-6.3182611 -3.9957824 0.39178696 2
-2.2416885 -1.4176843 -0.51556593 1
-10.930226 -6.9124727 1.1314559 19
-2.801465 -1.7716972 -0.52499408 1
-9.056428 -5.7274485 1.3157015 1
-6.2126622 -3.9289999 -0.90256435 4
-15.698555 -9.92805 2.9419065 23
-5.5299435 -3.4972363 -0.5724389 2
-8.3976202 -5.3108068 1.9313687 40
-6.240612 -3.9466758 -0.38697207 45
-8.4870625 -5.3673716 2.3183455 3
-6.2651253 -3.9621785 -0.12939215 38
-12.94763 -8.1883154 4.1048698 14
-1.5985239 -1.0035299 -0.50573242 4
-6.2985535 -3.9541395 0.129811 52
-1.8600671 -1.1677229 -0.50703967 2
-6.338243 -3.9790561 0.39220566 2
-2.2364008 -1.4039797 -0.51327622 1
-11.003712 -6.907969 1.1366853 42
-2.8274012 -1.7750009 -0.52874851 1
-9.0989084 -5.7121611 1.3191137 1
-6.225657 -3.9083765 -0.90256435 4
-15.754814 -9.8906412 2.9462867 23
-8.3835936 -5.2630968 1.9241179 39
-6.2773471 -3.9408264 -0.38843748 49
-8.4784079 -5.3226199 2.3111472 3
-6.2850046 -3.9456336 -0.12953176 35
-13.468832 -8.4555349 4.2611966 4
-1.5892446 -0.9892177 -0.50159132 5
-6.3153872 -3.9309824 0.1298459 10
-1.8711549 -1.1646913 -0.50883931 2
-6.3331275 -3.9420245 0.39094961 2
-2.2484422 -1.399532 -0.51480269 1
-11.026772 -6.8635612 1.1363366 21
-2.8140712 -1.751605 -0.52499408 1
-9.0769567 -5.6499081 1.3127766 1
-6.2911768 -3.9159129 -0.90987653 4
-15.796029 -9.8321619 2.9469125 4
-8.4020739 -5.2298303 1.9237363 37
-6.3195624 -3.9335811 -0.39011222 52
-8.0851755 -5.0325789 2.1986716 24
-6.3085966 -3.9267557 -0.12970628 47
-11.470771 -7.139926 3.6203609 3
-1.5875859 -0.98089582 -0.50003839 4
-6.336894 -3.9152737 0.13002042 3
-1.883296 -1.1636014 -0.51108879 2
-6.3733501 -3.9377983 0.39262435 2
-2.2463901 -1.3879405 -0.51327622 1
-16.120806 -9.9602995 1.6578765 13
-2.8299472 -1.7484934 -0.52687126 1
-6.3210154 -3.905463 -0.91231388 4
-11.353398 -7.0147395 2.1137426 17
-8.4344015 -5.2112265 1.9271709 37
-6.3512621 -3.9241509 -0.3912636 54
-8.1963167 -5.0641246 2.2243161 21
-6.3488026 -3.9226313 -0.13026476 68
-9.057128 -5.5959802 2.8527036 1
-1.5891831 -0.97461587 -0.49952075 5
-6.3481383 -3.8931928 0.12998553 3
-1.8705322 -1.1471618 -0.50658977 2
-6.3931837 -3.9208183 0.39304304 2
-2.2610219 -1.3866419 -0.51556593 1
-16.252254 -9.9672003 1.6679866 14
-2.8155229 -1.7267067 -0.52311683 1
-9.2631426 -5.6809096 1.3342255 1
-6.3745446 -3.9093874 -0.91816366 4
-9.0578327 -5.5549974 1.682922 8
-6.3778605 -3.9114211 -0.39210099 61
-8.3177214 -5.1011009 2.2526598 8
-6.3805265 -3.9130559 -0.13064872 58
-8.0677805 -4.9478168 2.5359089 26
-1.587793 -0.96577293 -0.49796784 3
-6.3914089 -3.8875656 0.13057891 3
-1.8680644 -1.1362475 -0.50479019 2
-2.2727983 -1.3824265 -0.51709241 1
-16.346554 -9.9427681 1.6739132 9
-2.8488357 -1.7328004 -0.52812278 1
-9.2347183 -5.6170044 1.3271571 3
-6.3752627 -3.8777447 -0.91621375 4
-9.0882587 -5.5279207 1.6847992 45
-9.07442 -5.5195036 2.0645533 6
-6.4006858 -3.8932083 -0.39262435 61
-8.3330326 -5.0685554 2.25176 29
-6.4119105 -3.9000356 -0.13099776 50
-8.1155701 -4.9362841 2.5452266 37
-1.599593 -0.9649362 -0.50055605 4
-6.4330111 -3.8806403 0.13113739 3
-1.89224 -1.1414722 -0.510189 2
-15.714911 -9.4798403 0.9618302 4
-2.2677636 -1.3680024 -0.51480269 1
-16.442596 -9.918808 1.6800141 14
-2.804424 -1.6917368 -0.51873666 1
-9.313035 -5.6179824 1.3354442 5
-6.3962317 -3.8584535 -0.9171887 4
-5.6878624 -3.4311378 -0.58115447 2
-10.296555 -6.2112784 2.3374102 1
-6.4268837 -3.8769441 -0.39335704 61
-8.3231869 -5.0208669 2.2441118 27
-6.4312987 -3.8796074 -0.13110247 50
-8.1584206 -4.921474 2.5529912 46
-1.6047767 -0.96005869 -0.50107366 3
-6.4454751 -3.8560095 0.13110247 1
-1.8729986 -1.1205226 -0.50389034 2
-11.663477 -6.9776821 0.71229237 3
-2.2660232 -1.3556498 -0.51327622 1
-11.676074 -6.9852185 1.1903732 7
-2.8445094 -1.7017295 -0.52499408 1
-9.3097143 -5.5695424 1.332032 54
-6.4375868 -3.8512902 -0.92108852 4
-11.683169 -6.9894638 2.1562927 24
-5.6149111 -3.3591239 -0.5724389 2
-10.828053 -6.4778895 2.4526589 6
-6.4427638 -3.8543875 -0.3934617 42
-8.0003796 -4.786232 2.1523316 30
-6.5038204 -3.8909147 -0.13228925 43
-8.1830349 -4.8955059 2.5550616 48
-1.6046294 -0.95275921 -0.50003839 4
-1.9001628 -1.1282341 -0.510189 2
-11.672812 -6.930809 0.71145499 27
-2.2873874 -1.3581512 -0.51709241 1
-11.671762 -6.9301858 1.1875842 34
-2.856931 -1.6963215 -0.52624553 1
-9.3469086 -5.549788 1.3347131 22
-6.5680976 -3.8998511 -0.93790644 2
-11.701188 -6.9476571 2.155354 39
-5.7973351 -3.4422059 -0.5898701 2
-10.834282 -6.4329257 2.4492242 8
-8.0245857 -4.7646503 2.1545813 36
-9.1164846 -5.4129725 -0.18506531 32
-8.1959019 -4.8663707 2.5540264 45
-1.6081107 -0.94687158 -0.50003839 4
-9.6377068 -5.6747775 0.19522262 57
-1.8824549 -1.1084081 -0.50434029 2
-11.710184 -6.8950729 0.71218771 33
-2.2788157 -1.3417894 -0.51403946 1
-11.714253 -6.897469 1.1893272 31
-2.8222759 -1.6617842 -0.51873666 1
-9.3603439 -5.5114636 1.3337381 14
-5.8339491 -3.4350872 -0.59231043 2
-8.1410713 -4.7935438 2.1811254 31
-9.1500483 -5.3876395 -0.18534456 72
-8.2220068 -4.8411994 2.5566146 37
-1.6229174 -0.94835639 -0.50366187 4
-9.6892757 -5.6619554 0.19588581 46
-1.882755 -1.1001933 -0.50344044 2
-11.748505 -6.865272 0.71312976 3
-2.2968132 -1.3421493 -0.51709241 1
-2.8687038 -1.6763352 -0.52624553 1
-9.4008503 -5.4934134 1.3369067 17
-9.2243166 -5.3902555 -1.3118017 2
-5.7799397 -3.3775241 -0.58568656 2
-9.4463978 -5.5200291 -0.57339275 2
-8.2545099 -4.8235459 2.2072198 30
-9.2110271 -5.3824897 -0.18621717 49
-8.174633 -4.7768703 2.5369444 13
-1.6196964 -0.93852752 -0.50159132 4
-1.8985777 -1.1001244 -0.50658977 3
-2.3051143 -1.3356906 -0.51785558 1
-2.8509002 -1.6519444 -0.52186537 1
-9.4054632 -5.4499636 1.3347131 1
-5.8164144 -3.3703015 -0.58812696 2
-9.4181795 -5.4573317 -0.57046193 4
-8.2198639 -4.7629719 2.1932728 28
-9.185708 -5.3226271 -0.18530965 24
-8.2004442 -4.751719 2.5395324 11
-1.6258227 -0.93564481 -0.5026266 4
-1.9136566 -1.1012903 -0.5097391 3
-2.2886481 -1.3170943 -0.51327622 1
-2.8592134 -1.6454489 -0.5224911 1
-9.3734179 -5.394309 1.3278884 1
-5.1153111 -2.9438109 -0.30930549 4
-8.1731548 -4.7035694 2.1770763 25
-9.2101259 -5.3003359 -0.18548417 100
-8.1977625 -4.717731 2.5343561 21
-1.6174958 -0.92297745 -0.49900311 3
-1.8973694 -1.0826793 -0.50434029 3
-2.2866395 -1.304805 -0.51174974 1
-2.8617935 -1.6330003 -0.52186537 1
-9.368988 -5.3461437 1.324476 1
-5.1689777 -2.9495287 -0.73072857 2
-5.8559442 -3.3415263 -0.5898701 2
-5.1278009 -2.9260323 -0.30941018 2
-8.1903391 -4.6735816 2.1770763 34
-8.1764078 -4.6656318 2.5224504 32
-1.6191864 -0.91609156 -0.49848548 4
-1.9131975 -1.082435 -0.50748956 2
-2.3050764 -1.3041494 -0.51480269 1
-8.9530935 -5.0654168 0.89997017 5
-2.8746367 -1.6263912 -0.52311683 1
-5.1348324 -2.9051485 -0.7243914 2
-9.2325354 -5.2235174 1.6801062 1
-5.8161292 -3.2906077 -0.58464074 2
-5.1037245 -2.8875484 -0.30731672 2
-8.1785803 -4.6272178 2.1694279 40
-9.2591743 -5.2385888 -0.18569361 4
-8.1783199 -4.6270709 2.5177917 32
-1.6225331 -0.91015083 -0.49848548 5
-1.8950571 -1.0630215 -0.50164086 2
-9.874938 -5.5392904 0.5933851 2
-2.2995672 -1.2899293 -0.51251298 1
-8.9298954 -5.0091743 0.8957867 11
-2.8564587 -1.6023145 -0.51873666 1
-5.0883126 -2.8542604 -0.71634799 5
-9.2860756 -5.2089715 1.6863636 1
-5.8212004 -3.2653694 -0.58394349 2
-9.1657352 -5.1414676 2.0428011 1
-5.0864029 -2.853189 -0.30564198 2
-8.1224022 -4.5562153 2.1500821 13
-8.1699514 -4.5828881 2.5100272 35
-1.6488538 -0.91849428 -0.50573242 4
-1.9169295 -1.0678259 -0.50658977 2
-2.3136749 -1.288833 -0.51480269 1
-8.9223633 -4.9702039 1.2540356 3
-5.0759492 -2.8275583 -0.71342313 5
-9.0944061 -5.0660405 1.6488192 1
-5.8900423 -3.2810488 -0.5898701 2
-5.0704188 -2.8244777 -0.30417657 2
-8.168231 -4.5501142 2.1586304 19
-8.1463842 -4.5379448 2.4986391 36
-1.6386803 -0.90497339 -0.50159132 4
-1.9191245 -1.0598507 -0.50613987 2
-9.0302849 -4.9870415 0.5406304 2
-2.3011973 -1.2708533 -0.51098651 1
-8.8849134 -4.9067593 1.2462358 12
-5.088016 -2.8098946 -0.71366686 2
-9.050662 -4.9982948 1.637556 1
-5.8601699 -3.2363222 -0.58568656 2
-9.0277739 -4.9856548 2.0046394 1
-5.0807371 -2.8058746 -0.30417657 2
-8.1156111 -4.4819064 2.4841452 35
-1.6385972 -0.89710575 -0.50055605 4
-1.9161588 -1.0490663 -0.50434029 2
-5.0191593 -2.7479095 0.29988503 46
-2.3075619 -1.2633532 -0.5113681 1
-8.8767195 -4.8598619 1.2425798 14
-3.8515699 -2.1086731 -0.53915 1
-8.9580288 -4.9043775 1.6175324 1
-4.9632316 -2.7172899 -0.49504462 9
-9.0765419 -4.9692616 2.3889802 1
-8.098093 -4.4335766 2.4737923 31
-1.6384785 -0.88925099 -0.49952075 4
-5.0353322 -2.7328246 0.10000229 2
-1.9285548 -1.046684 -0.50658977 2
-5.0344634 -2.732353 0.30019903 35
-2.3121767 -1.2548871 -0.5113681 1
-2.9132752 -1.5811212 -0.52499408 1
-8.8456211 -4.8007813 1.2357551 22
-3.9220819 -2.1286304 -0.54792458 1
-8.9759436 -4.8715115 1.6175324 1
-5.0502062 -2.7408972 -0.50271434 2
-8.9778023 -4.8725204 1.9855584 1
-9.0535879 -4.9136515 2.3781826 1
-8.0854244 -4.3882003 2.4649925 32
-1.6499231 -0.88839203 -0.50210893 4
-1.9251518 -1.0365875 -0.50479019 2
-2.3128681 -1.2453512 -0.51060486 1
-2.9045882 -1.5639597 -0.5224911 1
-8.8212919 -4.7497764 1.2301491 28
-8.9920492 -4.8417196 1.6175324 1
-8.0345373 -4.3261528 1.7737604 28
-5.0452552 -2.7165899 -0.30030373 20
-8.9394302 -4.8133874 2.3439901 1
-7.6066556 -4.0957623 2.3148775 19
-1.6548724 -0.88324845 -0.5026266 4
-1.9272189 -1.0286069 -0.50434029 3
-2.3243451 -1.2405634 -0.51213133 1
-2.910301 -1.5533034 -0.5224911 1
-8.8001137 -4.6968493 1.2247869 35
-8.9225998 -4.7622232 1.6018889 1
-8.0624638 -4.3031464 1.7764318 37
-5.0692739 -2.7056034 -0.30114108 49
-8.8710527 -4.7347112 2.3214948 1
-7.5704875 -4.040566 2.2993484 28
-1.6458411 -0.87142801 -0.49900311 5
-1.9392304 -1.0267696 -0.50658977 2
-8.9402771 -4.733633 0.53016323 2
-2.3319163 -1.2346861 -0.51289457 1
-2.8944867 -1.5325518 -0.51873666 1
-8.7998514 -4.6592817 1.2225933 35
-8.8859692 -4.7048788 1.5925028 1
-5.8705249 -3.1082828 -0.58115447 2
-8.038518 -4.256176 1.7680361 39
-5.0552721 -2.6766288 -0.29978037 2
-8.8867044 -4.7052679 2.3214948 1
-7.5599427 -4.0027833 2.2921014 30
-1.6507347 -0.86628759 -0.49952075 5
-8.9490156 -4.6963458 0.17640893 2
-1.9447063 -1.0205607 -0.50703967 2
-9.9638557 -5.2289228 0.58972156 4
-2.336426 -1.226131 -0.51289457 1
-2.9245725 -1.5347837 -0.52311683 1
-8.7817144 -4.6085482 1.2177185 14
-8.8541775 -4.6465764 1.5837425 1
-5.8818779 -3.0867455 -0.58115447 2
-7.9793119 -4.1874561 1.7516266 27
-5.0774279 -2.6645789 -0.30051306 4
-8.8762817 -4.6581759 2.3142965 19
-7.5454822 -3.9597871 2.2833016 31
-1.6567242 -0.86317122 -0.50055605 5
-1.9373564 -1.0093836 -0.50434029 2
-8.9714746 -4.6742349 0.53016323 2
-2.3365715 -1.217379 -0.51213133 1
-2.9045873 -1.5133213 -0.51873666 1
-5.7127523 -2.9764054 0.79093206 4
-3.9575553 -2.061929 -0.54792458 1
-8.8504066 -4.6111574 1.5806139 17
-5.8804088 -3.0637565 -0.58010864 2
-8.0056295 -4.1710196 1.7546796 22
-5.0853114 -2.6495023 -0.30051306 4
-8.8658686 -4.6192131 2.3079977 1
-7.5212197 -3.9186366 2.2724311 28
-1.6633098 -0.85886586 -0.50159132 4
-8.8911257 -4.5910177 0.17466368 2
-1.9497006 -1.0067465 -0.50658977 2
-2.3270624 -1.2016008 -0.50907838 1
-5.6773906 -2.9315748 0.55901694 4
-2.9346871 -1.5153537 -0.52311683 1
-5.6954017 -2.9408748 0.78703225 30
-5.7096515 -2.9482329 1.0177627 32
-5.8880577 -3.0403547 -0.57976002 2
-8.0365639 -4.1497564 1.7581141 12
-5.0683689 -2.6171005 -0.29894298 2
-8.7961626 -4.5419822 2.2855027 1
-7.513217 -3.8795211 2.265702 28
-1.6627098 -0.85158414 -0.50055605 4
-5.6936965 -2.9161201 0.1116605 22
-1.9426215 -0.99494547 -0.50389034 2
-5.6885371 -2.9134777 0.33495012 30
-2.3310342 -1.1938773 -0.50907838 1
-5.7030411 -2.9209061 0.56058574 37
-2.9150813 -1.4930067 -0.51873666 1
-5.6909881 -2.9147327 0.78508228 42
-5.6965399 -2.9175766 1.0136954 41
-5.6994944 -2.9190896 -0.56023711 12
-8.8296213 -4.5222354 1.9283158 1
-8.8389273 -4.5270019 2.2927012 1
-7.4950905 -3.8387334 2.2563844 11
-1.6589292 -0.84198695 -0.49848548 4
-5.6900811 -2.8879917 0.11138126 37
-1.9462551 -0.98781872 -0.50389034 2
-5.6867104 -2.886281 0.33421743 32
-2.3564022 -1.1959883 -0.51365781 1
-5.6799521 -2.8828506 0.55727381 36
-2.9557636 -1.5001931 -0.52499408 1
-5.6803908 -2.8830736 0.78215742 45
-5.6684427 -2.8770092 1.0068122 36
-5.6710687 -2.8783419 -0.55640227 40
-8.7971182 -4.4649634 1.9176304 1
-7.5108323 -3.8121111 2.256902 9
-1.6376983 -0.82403457 -0.49123853 4
-5.6786914 -2.8573263 0.1109624 40
-1.9549137 -0.98364669 -0.50524008 2
-5.6806936 -2.8583336 0.33327538 40
-2.3675778 -1.1912854 -0.51518428 1
-5.6632833 -2.8495734 0.55465913 37
-2.9256904 -1.4721088 -0.51873666 1
-5.6709142 -2.8534129 0.77947634 39
-5.6660986 -2.8509901 1.0046221 38
-5.6561642 -2.8459914 -0.55396187 20
-8.7770929 -4.416337 2.2684064 1
-7.5499787 -3.7988949 2.2646666 7
-1.6664957 -0.83124727 -0.49900311 4
-5.6599998 -2.8232055 0.11040393 37
-1.9286901 -0.9620297 -0.49759173 2
-5.6709766 -2.8286805 0.33212397 42
-2.3400986 -1.1672401 -0.50831515 1
-5.6571498 -2.8217838 0.55309033 36
-2.9661646 -1.4795216 -0.52499408 1
-5.6541944 -2.8203096 0.77582026 39
-5.6477332 -2.8170867 0.99961621 40
-4.8423634 -2.4153686 -0.47343001 9
-8.7542887 -4.3666348 1.9016025 1
-8.823844 -4.4013295 2.2765048 1
-6.9875264 -3.4853749 2.0922933 6
-1.6728506 -0.82713759 -0.50003839 5
-5.6357617 -2.7865911 0.10974073 19
-1.9442645 -0.96133763 -0.50074106 3
-2.3511984 -1.1625453 -0.50984162 1
-5.6491051 -2.7931886 0.55134726 36
-2.9358962 -1.4516479 -0.51873666 1
-5.6373129 -2.7873578 0.77216417 42
-4.8899417 -2.4178216 -0.6697939 2
-5.6504493 -2.793853 0.99836475 40
-4.8829131 -2.4143465 -0.4765676 2
-6.9814401 -3.4519589 1.5138786 19
-6.9682579 -3.445441 1.7946595 22
-6.94943 -3.4361315 2.0772817 22
-1.6705235 -0.81874257 -0.49848548 4
-4.9020643 -2.4025576 0.095290139 2
-1.9563577 -0.95883316 -0.50299054 2
-4.9821773 -2.4418218 0.29077858 15
-2.3763969 -1.1646992 -0.51442105 1
-5.6355629 -2.7620535 0.54908121 37
-2.9409456 -1.4413909 -0.51873666 1
-5.6291828 -2.7589266 0.76972675 43
-5.6229177 -2.7558558 0.99179453 45
-6.9617147 -3.4120157 1.5070094 30
-4.903266 -2.4031465 -0.28617302 4
-6.9644933 -3.4133775 1.7906104 42
-6.9579124 -3.4101522 2.0762463 40
-1.6804644 -0.81598967 -0.50055605 4
-5.6393681 -2.7383301 0.10942659 39
-1.9598589 -0.95165634 -0.50299054 2
-5.6271076 -2.7323766 0.32783243 48
-2.3594573 -1.1456908 -0.50984162 1
-5.6277261 -2.7326767 0.54733807 39
-2.9462087 -1.4306021 -0.51873666 1
-5.6321144 -2.7348077 0.7687518 51
-5.60988 -2.7240114 0.98772722 43
-5.0613689 -2.4576685 -0.49225563 2
-6.9724078 -3.3856194 1.5066278 52
-4.942584 -2.3999898 -0.28795242 12
-6.9594274 -3.3793163 1.7861114 49
-5.0691357 -2.4614398 -0.09836176 2
-6.9495111 -3.3745012 2.0700347 50
-1.6641543 -0.80090338 -0.49486202 4
-5.6290717 -2.7090893 0.10904264 43
-1.9579009 -0.94227409 -0.50164086 2
-5.6168146 -2.7031903 0.32668105 42
-2.3528278 -1.1323395 -0.50755191 1
-5.6138916 -2.7017837 0.54507202 37
-2.926265 -1.4083163 -0.51435649 1
-5.6398373 -2.7142706 0.76850808 54
-5.6407142 -2.7146924 0.99148166 47
-5.3679361 -2.5834131 -0.52119136 2
-6.9523406 -3.3459356 1.4997587 57
-4.9221363 -2.3688643 -0.28627768 4
-6.9518652 -3.3457067 1.7811625 53
-6.9525442 -3.3460336 2.0674465 52
-1.6823525 -0.80316198 -0.49952075 5
-5.6158996 -2.6810534 0.10862378 40
-1.9590929 -0.93527895 -0.50119096 3
-5.6378961 -2.6915545 0.32741374 42
-2.3758624 -1.1342463 -0.51174974 1
-5.6331396 -2.6892838 0.5461179 28
-4.9397202 -2.3582428 -0.86695981 3
-5.6519198 -2.6982496 0.76899558 54
-5.6688237 -2.7063196 0.99492317 45
-5.5809975 -2.664391 -0.54106283 47
-6.9539595 -3.3198485 1.4978507 59
-4.9007158 -2.3396218 -0.28460294 4
-6.9641004 -3.3246899 1.7816124 59
-6.9595346 -3.3225105 2.0664113 54
-1.6764145 -0.79315352 -0.49693257 4
-5.6414924 -2.6691308 0.10893792 39
-1.9658687 -0.93010157 -0.50209075 2
-5.6580892 -2.6769834 0.32804176 44
-2.390455 -1.1309839 -0.51403946 1
-4.9461365 -2.3401406 -0.86664695 1
-5.6738644 -2.6844471 0.77070171 49
-5.2001452 -2.4603186 -0.70635474 2
-5.6960921 -2.6949635 0.99805188 42
-5.6280847 -2.6627874 -0.54472339 57
-6.9690547 -3.2972338 1.4986138 61
-4.9070473 -2.3216467 -0.28449824 2
-6.968617 -3.2970269 1.7798127 59
-6.978075 -3.3015015 2.0684819 51
-1.6984134 -0.79631805 -0.5026266 5
-5.6743126 -2.6604578 0.10939168 40
-1.9726323 -0.92488831 -0.50299054 2
-5.6782494 -2.6623037 0.32866982 44
-2.3872781 -1.1192991 -0.51251298 1
-5.7040915 -2.6744201 0.55117291 37
-2.9654107 -1.3903624 -0.51873666 1
-5.7065659 -2.6755803 0.77387035 22
-5.1871338 -2.4320393 -0.70342988 2
-5.6662087 -2.6566584 -0.54751235 55
-6.9805217 -3.272887 1.4986138 53
-4.8735294 -2.2850027 -0.28209081 4
-6.9818478 -3.273509 1.7802626 55
-4.9971609 -2.3429687 -0.096337281 28
-7.001801 -3.2828641 2.0721052 50
-1.6836628 -0.78224474 -0.4974502 4
-5.716208 -2.6558011 0.11001997 40
-1.9811506 -0.92046022 -0.50434029 2
-5.7164888 -2.6559315 0.33034456 44
-2.3733659 -1.1026869 -0.50869679 1
-5.7332683 -2.6637273 0.55309033 39
-3.016824 -1.4016433 -0.52687126 1
-5.7878819 -2.6891012 0.78361988 16
-5.1775885 -2.4055538 -0.70099247 2
-5.8043408 -2.6967483 1.0136954 23
-5.6754475 -2.6368635 -0.54751235 50
-7.0132694 -3.2584274 1.5031933 52
-4.8869095 -2.2705016 -0.28240481 2
-7.0038357 -3.2540445 1.7829621 46
-7.0272336 -3.2649152 2.0762463 43
-1.6726131 -0.76931614 -0.49330911 4
-5.7390804 -2.6396821 0.1102643 43
-1.9811294 -0.91121775 -0.50344044 3
-5.7538624 -2.646481 0.33191463 46
-5.6773028 -2.6112676 -1.2146901 2
-5.7525043 -2.6458564 0.55396187 39
-2.9755228 -1.3685876 -0.51873666 1
-5.8216095 -2.6776412 0.78678846 27
-5.1651454 -2.3757014 -0.69806761 2
-5.8325992 -2.6826959 1.016824 25
-5.7018213 -2.6225448 -0.54908121 50
-7.0382142 -3.2372169 1.5058646 39
-4.8883338 -2.2483823 -0.28198612 2
-7.0534582 -3.2442284 1.79241 33
-5.0432692 -2.3196447 -0.096895762 2
-7.0642896 -3.2492101 2.0834932 28
-1.6788043 -0.76507515 -0.49434438 5
-5.7609973 -2.6254377 0.11050864 40
-1.9754318 -0.9002561 -0.50119096 2
-5.7812395 -2.6346626 0.33296135 46
-5.7185397 -2.6060889 -1.2215592 2
-5.7798352 -2.6340225 0.55570501 37
-2.9802821 -1.3581928 -0.51873666 1
-5.8399525 -2.6614196 0.7880072 28
-5.1734066 -2.3576572 -0.69806761 2
-5.8527131 -2.6672349 1.0187012 22
-5.732697 -2.6125405 -0.55117291 40
-7.0673366 -3.2207708 1.5096807 17
-4.8670731 -2.2180531 -0.28031138 2
-5.0495157 -2.3011971 -0.096860856 21
-1.6918954 -0.76427561 -0.4974502 4
-5.7897182 -2.6153746 0.11089259 42
-1.9730784 -0.89129364 -0.49984124 2
-5.7990456 -2.6195881 0.33348471 44
-5.7575665 -2.6008508 -1.2280467 4
-5.8121424 -2.6255043 0.55797106 36
-2.9847696 -1.3483024 -0.51873666 1
-5.8686457 -2.6510284 0.79068828 39
-5.1811967 -2.3404887 -0.69806761 2
-5.89573 -2.6632631 1.0246458 24
-5.1984267 -2.3482721 -0.49905378 14
-4.863481 -2.1969678 -0.27968335 55
-8.6843863 -3.9229758 2.2000213 3
-5.1172581 -2.3116059 -0.098012716 2
-7.1760311 -3.2416101 2.1098928 24
-1.7121861 -0.76625651 -0.5026266 4
-5.8134141 -2.6016836 0.11117183 39
-1.9726201 -0.8828088 -0.49894145 3
-5.8263845 -2.6074882 0.33453143 42
-5.7773619 -2.5855491 -1.2303364 4
-5.8485503 -2.617408 0.56058574 37
-2.9894578 -1.3378752 -0.51873666 1
-5.8959832 -2.6386356 0.79312569 31
-5.2147017 -2.3337412 -0.70147991 2
-5.9230208 -2.6507361 1.0277745 25
-5.2120476 -2.3325534 -0.49957672 2
-8.6893387 -3.8887494 1.8504657 3
-4.8911734 -2.1889522 -0.28083473 21
-8.6926908 -3.8902495 2.1986716 3
-8.2576389 -3.6955502 2.4240992 5
-1.6864629 -0.74804187 -0.49434438 4
-5.8476009 -2.5937424 0.1116605 37
-1.986225 -0.88100332 -0.50164086 2
-5.8496051 -2.5946314 0.33536881 40
-5.7912884 -2.5687644 -1.2314813 4
-5.8754106 -2.6060777 0.56232888 37
-4.8844628 -2.1665363 -0.84631044 5
-5.939178 -2.6343622 0.79775673 36
-5.167974 -2.2922895 -0.69416779 2
-5.9390016 -2.6342838 1.0290259 34
-5.2106476 -2.3112175 -0.49870515 21
-8.7003918 -3.859117 1.8500841 4
-5.0608945 -2.2447934 -0.29015055 6
-8.6841679 -3.8519204 2.1932728 3
-5.1511531 -2.2848284 -0.09836176 2
-8.2645512 -3.6657968 2.4225461 3
-1.6996757 -0.74681318 -0.4974502 5
-5.8749266 -2.5813589 0.11200955 37
-1.9857199 -0.8724969 -0.50074106 2
-5.8878832 -2.5870516 0.33704355 44
-2.3923435 -1.0511615 -0.50793356 1
-5.8844719 -2.5855527 0.56232888 37
-2.9984951 -1.3174958 -0.51873666 1
-5.9719639 -2.6239955 0.80092531 36
-5.16504 -2.2694447 -0.69270533 2
-5.9680543 -2.6222777 1.0324675 22
-5.2460446 -2.305037 -0.50131983 2
-8.7174044 -3.830303 1.8508472 1
-5.2222962 -2.2946024 -0.29894298 2
-6.1052413 -2.6825557 1.539565 16
-5.1847281 -2.2780955 -0.098850429 11
-6.0947785 -2.6779587 1.7837808 42
-1.6848145 -0.73257816 -0.49227384 5
-5.8957982 -2.563566 0.11221898 37
-1.9908425 -0.86564296 -0.50119096 2
-5.9234157 -2.5755744 0.33850896 42
-2.3999629 -1.0435336 -0.50869679 1
-5.9235902 -2.5756505 0.56511784 37
-2.9673011 -1.2902192 -0.51247931 1
-5.9947381 -2.6065865 0.8026315 25
-5.2028427 -2.2622604 -0.69660515 2
-6.0034404 -2.6103702 1.0368476 22
-5.2475481 -2.2816989 -0.50062257 2
-5.1394877 -2.2347131 -0.2937094 2
-6.1530256 -2.6754117 1.549013 59
-5.219111 -2.2693341 -0.099339098 2
-6.1191893 -2.6606994 1.7879219 22
-1.7122016 -0.73739052 -0.49952075 5
-5.9359331 -2.5564167 0.11281236 40
-1.9741641 -0.85020936 -0.49624202 3
-5.9452105 -2.5604122 0.33924165 48
-2.3963783 -1.0320435 -0.50717032 1
-5.9599934 -2.5667787 0.56773251 37
-3.0080721 -1.2954806 -0.51873666 1
-6.0238557 -2.5942822 0.80531263 36
-5.2398791 -2.2566485 -0.70050496 2
-6.0469871 -2.604244 1.0427922 24
-5.9197354 -2.5494409 -0.56389767 52
-5.1802759 -2.2309792 -0.29559347 34
-5.2270007 -2.2511022 -0.099339098 2
-6.1994119 -2.6698885 1.8086275 6
-1.6986459 -0.72488433 -0.49486202 7
-5.9682879 -2.5469217 0.11326612 39
-1.9769726 -0.84365815 -0.49624202 3
-5.9683642 -2.5469544 0.34007904 46
-2.378119 -1.0148443 -0.50259089 1
-5.9922953 -2.5571666 0.56999856 39
-2.9869156 -1.2746437 -0.51435649 1
-6.0488577 -2.5813043 0.80750626 30
-6.0646744 -2.5880539 1.0443565 24
-5.9519801 -2.5399625 -0.56616372 47
-6.1953878 -2.6438351 1.3093313 31
-5.2335706 -2.2333865 -0.29821029 54
-6.1836405 -2.6388218 1.5521623 38
-5.3668609 -2.2902675 -0.10185225 2
-1.7047249 -0.72045463 -0.49589729 3
-6.0029292 -2.5369713 0.11375479 42
-1.9960607 -0.84357959 -0.50029117 3
-6.0066538 -2.5385454 0.34175378 46
-2.4105811 -1.0187651 -0.50869679 1
-6.0177016 -2.5432146 0.57156736 37
-3.0422943 -1.2857412 -0.52311683 1
-6.0870872 -2.5725384 0.81140608 28
-6.0955057 -2.5760963 1.048111 24
-5.9718213 -2.5238245 -0.5672096 37
-6.2027707 -2.6214287 1.3089497 31
-5.1935019 -2.1948893 -0.2954888 6
-6.1981993 -2.6194968 1.553512 8
-5.2827253 -2.2325971 -0.10010701 5
-1.7144829 -0.71718371 -0.49796784 1
-6.0195665 -2.5180392 0.1138944 39
-1.9901502 -0.83249784 -0.49804163 3
-6.0361857 -2.5249913 0.34290519 42
-2.3853199 -0.99780101 -0.50259089 1
-6.0398493 -2.5265236 0.57278752 37
-2.9923155 -1.2517127 -0.51373076 1
-6.1257763 -2.5624678 0.81530589 27
-5.9865956 -2.5042472 -0.79678178 7
-6.1249528 -2.5621233 1.0515524 24
-5.2090483 -2.178992 -0.49399874 2
-6.2449379 -2.6123142 1.3158188 12
-5.2162523 -2.1820056 -0.29632619 4
-6.245512 -2.6125543 1.5629599 27
-6.0195665 -2.5180392 -0.1138944 28
-6.2430701 -2.6115329 1.8132862 39
-1.7205454 -0.71267325 -0.49900311 1
-6.0412517 -2.5023685 0.11413874 37
-1.993044 -0.82554585 -0.49804163 2
-6.0744867 -2.5161347 0.34457994 42
-2.4032989 -0.99547905 -0.50564384 1
-6.0744019 -2.5160995 0.57522792 36
-6.0188832 -2.493103 -1.0318418 1
-6.1383514 -2.5425885 0.8157934 27
-6.1557589 -2.549799 1.0553069 23
-6.0191798 -2.4932258 -0.56999856 25
-6.2395082 -2.5844889 1.3127658 31
-5.2404442 -2.1706629 -0.29726824 6
-6.2707973 -2.5974493 1.5670091 19
-6.0523367 -2.5069599 -0.11434817 34
-1.7138404 -0.70359612 -0.49641493 4
-6.0823812 -2.4970469 0.11476702 36
-1.9956278 -0.81928051 -0.49804163 3
-6.0897517 -2.5000727 0.34499863 38
-2.4282084 -0.99687117 -0.51022327 1
-6.1025505 -2.5053272 0.57714534 36
-3.0005512 -1.2318395 -0.51373076 1
-6.1610003 -2.5293229 0.8177433 25
-6.0306182 -2.4757962 -0.80043787 7
-6.1893225 -2.5409503 1.059687 16
-6.0527864 -2.4848971 -0.5724389 30
-8.6957827 -3.569947 1.8271869 7
-8.6927881 -3.5687177 2.1694279 10
-6.086081 -2.4985659 -0.11483683 35
-8.3833418 -3.4416783 2.4282403 5
-1.7091273 -0.6946997 -0.49434438 5
-6.1114383 -2.4840832 0.11515098 36
-1.9966701 -0.81157565 -0.49759173 3
-6.1132436 -2.4848168 0.34583601 38
-2.4171233 -0.98247498 -0.50717032 1
-6.1463275 -2.4982646 0.58045727 37
-6.0718851 -2.4680064 -1.0380991 5
-6.1936984 -2.517519 0.82091188 9
-6.0631304 -2.4644477 -0.80360645 7
-6.1560645 -2.5022221 1.0524911 2
-6.0817266 -2.4720063 -0.57435632 32
-8.7136478 -3.5417891 1.8283318 12
-8.7051926 -3.5383525 2.1694279 13
-6.1095858 -2.48333 -0.11511607 35
-8.402463 -3.4153037 2.4303107 5
-1.7242082 -0.69347686 -0.49796784 5
-6.1538963 -2.4750981 0.11577927 37
-1.9869753 -0.79916185 -0.4944424 3
-6.155664 -2.4758091 0.34772009 42
-2.4134223 -0.97067887 -0.50564384 1
-6.1776247 -2.4846418 0.58254898 37
-6.0992174 -2.4531062 -1.0412278 5
-6.189992 -2.4896159 0.8192057 31
-6.0979061 -2.452579 -0.80701882 5
-6.1816888 -2.4862761 1.0553069 33
-6.1036854 -2.4549034 -0.57557654 25
-8.7138205 -3.5047002 1.8256605 13
-5.3032842 -2.1329818 -0.29957101 18
-8.7018309 -3.4998779 2.1653788 15
-6.1297779 -2.4653978 -0.1153255 32
-8.4113398 -3.3830423 2.4292755 5
-1.6979012 -0.67602026 -0.48968562 5
-6.1755037 -2.4587801 0.1160236 37
-2.0132895 -0.80159223 -0.50029117 2
-6.1902466 -2.4646499 0.3491855 44
-2.4313879 -0.96805829 -0.50869679 1
-6.1992178 -2.4682217 0.58376914 37
-6.1316013 -2.4413002 -1.0452951 5
-6.2207761 -2.4768052 0.82213056 40
-6.1433158 -2.4459643 -0.81189358 5
-6.2288699 -2.4800279 1.0618771 41
-6.1325793 -2.4416897 -0.57749397 17
-7.5239868 -2.9956794 1.5741742 31
-5.3440981 -2.1277554 -0.30145511 2
-8.7266684 -3.4745276 2.1685281 16
-6.1717877 -2.4573004 -0.11595379 32
-8.419508 -3.3522315 2.4282403 5
-1.7236156 -0.67929775 -0.49641493 5
-6.2007923 -2.4438074 0.11633774 39
-2.0160754 -0.79455966 -0.50029117 1
-6.2359753 -2.4576733 0.35127893 44
-2.4310992 -0.95812559 -0.50793356 1
-6.2281857 -2.4546032 0.58568656 37
-6.1474371 -2.4227793 -1.0465466 5
-6.2441583 -2.4608984 0.82408053 39
-6.1776724 -2.4346955 -0.81530589 5
-6.2779207 -2.4742045 1.0687603 39
-5.546051 -2.1857657 -0.52153999 2
-7.5417042 -2.9722769 1.5757006 53
-5.3068967 -2.0915122 -0.29894298 2
-8.7296791 -3.4404721 2.1662786 18
-6.2063737 -2.446007 -0.11644246 32
-6.5170283 -2.5684397 1.8769557 1
-1.713378 -0.66836268 -0.49279147 5
-6.2353668 -2.4323218 0.11682641 40
-1.9861575 -0.77476984 -0.49219289 2
-6.2724266 -2.4467783 0.35284901 44
-2.4344287 -0.9496336 -0.50793356 1
-6.318387 -2.4647067 0.59335631 37
-6.188982 -2.4142277 -1.0521783 3
-6.3192878 -2.4650581 0.83285511 54
-6.1935306 -2.416002 -0.81628084 5
-6.338048 -2.4723761 1.0775206 47
-6.1884556 -2.4140222 -0.58115447 20
-5.2676477 -2.0548291 -0.29632619 4
-6.5013075 -2.536061 1.6110995 17
-6.2707634 -2.4461293 -0.1174896 32
-6.4989576 -2.5351446 1.8691912 19
-1.7281995 -0.66754985 -0.49641493 5
-6.3198786 -2.4411731 0.11825751 48
-2.0032585 -0.77379662 -0.49579212 2
-6.3140421 -2.4389186 0.35473311 48
-2.4485528 -0.94580001 -0.51022327 1
-6.3190913 -2.4408689 0.59265906 37
-6.2282796 -2.4057913 -1.057497 5
-6.3126135 -2.4383667 0.8309052 52
-6.2403951 -2.4104712 -0.82139939 5
-6.3240995 -2.4428034 1.0737661 43
-6.2596173 -2.417896 -0.58708107 20
-6.5032244 -2.5119939 1.3551254 45
-5.2856112 -2.0416677 -0.29695421 42
-6.4896851 -2.5067642 1.6061505 39
-6.2974939 -2.4325266 -0.11783865 35
-6.509131 -2.5142753 1.8697088 27
-1.7233012 -0.65875405 -0.49434438 5
-6.3171539 -2.4148135 0.11804808 48
-2.0132287 -0.76958257 -0.49759173 3
-6.3225169 -2.4168634 0.35473311 48
-2.4151626 -0.92322701 -0.50259089 1
-6.3257117 -2.4180849 0.59248471 36
-6.3104458 -2.4122493 -1.0700117 9
-6.3488998 -2.4269488 0.83456129 51
-6.3155236 -2.4141903 -0.83017397 2
-6.3510394 -2.4277668 1.0768949 40
-6.2754636 -2.3988769 -0.58777833 20
-6.5137868 -2.489979 1.3555071 23
-6.3075919 -2.4111583 -0.35389572 40
-8.7264175 -3.3357854 2.1568308 12
-6.2984753 -2.4076734 -0.11769903 32
-1.723897 -0.65175027 -0.49382675 5
-6.3334441 -2.3944726 0.1181877 37
-2.0269725 -0.7663334 -0.50029117 3
-6.3500147 -2.4007373 0.35577983 44
-6.3153572 -2.3876343 -1.3123842 2
-6.3606234 -2.404748 0.59492511 34
-6.2915287 -2.3786256 -1.0653187 9
-6.3763208 -2.4106827 0.83699864 49
-6.3317571 -2.3938346 -0.83114892 2
-6.3857632 -2.4142525 1.081275 43
-6.287941 -2.377269 -0.58812696 22
-6.5779614 -2.4869165 1.3669556 8
-6.3369374 -2.395793 -0.35504714 40
-6.598598 -2.4947186 1.6286457 24
-6.3278327 -2.3923509 -0.11808299 26
-6.5432191 -2.4737816 1.8743675 1
-1.7315897 -0.64775932 -0.49537966 4
-5.1299739 -1.9190392 0.095604286 6
-2.0113831 -0.75242549 -0.49579212 2
-6.3920279 -2.3911529 0.35766393 38
-2.4290624 -0.90867245 -0.50411737 1
-6.3969698 -2.3930018 0.59753978 37
-6.3127446 -2.3614943 -1.0675088 5
-6.4070077 -2.3967566 0.8399235 49
-6.3400745 -2.3717182 -0.83114892 2
-6.4293046 -2.4050977 1.0872195 45
-6.3260584 -2.3664749 -0.59091592 20
-6.358356 -2.378557 -0.35577983 33
-6.618217 -2.4757667 1.631345 38
-5.1393385 -1.9225425 -0.095778808 18
-6.5662894 -2.4563413 1.8785087 1
-1.7229698 -0.63768774 -0.49227384 5
-5.1478934 -1.9052851 0.095813714 26
-1.9938939 -0.73795938 -0.49084321 2
-6.4097009 -2.3722923 0.35818729 42
-2.4248548 -0.89746213 -0.50259089 1
-6.4277062 -2.3789563 0.59963149 37
-6.3561482 -2.3524718 -1.0734533 5
-6.437675 -2.3826458 0.84284836 43
-6.381825 -2.361975 -0.83553624 2
-6.4710069 -2.3949823 1.0928512 45
-6.3454914 -2.3485277 -0.5919618 20
-6.3797317 -2.3612003 -0.35651255 35
-6.6633706 -2.4661777 1.6403431 8
-5.1478934 -1.9052851 -0.095813714 23
-6.6110587 -2.4468167 1.8888614 1
-1.7396978 -0.63698334 -0.49641493 5
-5.1394906 -1.8818038 0.095534474 26
-2.0110972 -0.73635507 -0.4944424 2
-6.4423242 -2.3588309 0.35954803 44
-5.1675072 -1.8920619 -1.0696752 1
-6.4509387 -2.3619852 0.601026 16
-6.3902903 -2.3397789 -1.0778334 5
-6.4590015 -2.3649373 0.84455454 24
-6.4049435 -2.345144 -0.83748615 2
-6.4923124 -2.3771338 1.0950413 40
-5.7287626 -2.0975633 -0.53374177 2
-6.4198184 -2.3505905 -0.35829195 38
-6.6755981 -2.4442432 1.6412429 38
-5.1244683 -1.8763033 -0.095255233 21
-6.6594691 -2.4383376 1.9002495 1
-1.7364615 -0.62893313 -0.49486202 6
-5.1385074 -1.8611281 0.095394857 26
-2.0301456 -0.73530322 -0.49849153 3
-6.4899545 -2.3506119 0.36174613 44
-5.1408539 -1.8619781 -1.0628061 1
-6.4947371 -2.352344 0.60433793 31
-6.4597096 -2.3396575 -1.0881581 5
-6.4970803 -2.3531928 0.84845436 46
-6.5191436 -2.3611841 1.0981699 40
-5.2152719 -1.8889316 -0.48528317 2
-6.4373736 -2.3315675 -0.35881531 4
-6.7335606 -2.4388442 1.6533903 4
-5.1084247 -1.8502324 -0.094836377 21
-6.7260637 -2.4361291 1.9168139 21
-1.724097 -0.61765563 -0.4907209 6
-5.1167345 -1.8330638 0.094871283 26
-2.0308654 -0.72755498 -0.49804163 3
-6.5244431 -2.3373737 0.36321154 46
-5.1325364 -1.8387249 -1.0597532 1
-6.5254164 -2.3377223 0.60642964 28
-6.4715567 -2.3184271 -1.0887839 1
-6.5444994 -2.3445587 0.85357291 28
-5.1354322 -1.8397623 -0.6697939 2
-6.5608196 -2.3504055 1.1038016 55
-5.133678 -1.8391337 -0.47709054 13
-6.7220149 -2.4081535 1.3879446 35
-5.1725488 -1.8530592 -0.28795242 4
-6.742033 -2.4153249 1.6533903 27
-5.1110868 -1.8310405 -0.094766565 21
-6.7454386 -2.4165449 1.9199197 14
-1.7388815 -0.61645341 -0.49434438 5
-5.109592 -1.8114089 0.094626948 23
-2.0204098 -0.71625841 -0.49489233 2
-6.5679255 -2.3284049 0.36520031 44
-5.1312041 -1.8190706 -1.0582267 1
-6.5575452 -2.3247249 0.60869569 31
-6.4978275 -2.3035543 -1.0919125 1
-6.5765615 -2.3314664 0.85674149 40
-5.1714411 -1.8333352 -0.67369372 2
-6.5890579 -2.3358965 1.1072432 50
-5.8063946 -2.0584335 -0.53897113 7
-6.7429166 -2.3904412 1.3906159 5
-5.1485457 -1.8252184 -0.28627768 12
-6.7977605 -2.409884 1.6650877 34
-5.1058221 -1.8100725 -0.094557136 21
-6.7807274 -2.4038455 1.9276843 42
-1.7373766 -0.60910153 -0.49330911 5
-5.1064482 -1.790254 0.094452426 26
-2.0228977 -0.70920151 -0.49489233 2
-6.5892067 -2.3100898 0.365933 40
-5.1115847 -1.7920549 -1.052884 3
-6.6032238 -2.3150041 0.61218196 45
-3.0422673 -1.0665792 -0.51060212 1
-6.6052661 -2.3157201 0.85942262 55
-6.5678 -2.3025849 -0.85454786 7
-6.6363182 -2.3266065 1.1138134 47
-5.8022633 -2.0341978 -0.53792524 7
-6.7623358 -2.3707867 1.3929057 1
-5.1718488 -1.8131826 -0.28721973 4
-8.8235121 -3.0934079 2.1586304 45
-5.1083355 -1.7909156 -0.094487332 23
-6.942214 -2.4338496 1.9711659 29
-1.7395974 -0.60272968 -0.49330911 5
-5.0959702 -1.7656339 0.09413828 23
-2.0107527 -0.69667858 -0.4912931 3
-6.6089525 -2.2898469 0.36656103 40
-5.1144085 -1.7720225 -1.0521208 5
-6.6455512 -2.3025274 0.61531955 42
-3.042423 -1.0541282 -0.50997633 1
-6.572444 -2.2771974 -0.85406035 10
-6.6597333 -2.3074412 1.1163163 43
-5.8247409 -2.018136 -0.53931975 7
-6.8210664 -2.3633394 1.4032093 1
-6.5976291 -2.2859235 -0.365933 38
-6.8498168 -2.3733006 1.6736358 44
-5.0846329 -1.761706 -0.093928851 21
-6.8634691 -2.378031 1.9463192 46
-1.7398632 -0.59602755 -0.49279147 6
-5.0945354 -1.7452427 0.093998663 22
-2.0242336 -0.69344479 -0.49399251 2
-6.6471367 -2.2771196 0.3682358 40
-5.0927033 -1.7446152 -1.0463965 10
-6.678051 -2.2877102 0.6175856 42
-3.0610342 -1.0486232 -0.51247931 1
-6.6761284 -2.2870514 0.86649102 40
-6.5897422 -2.2574582 -0.85527903 7
-6.6901727 -2.2918625 1.1200708 38
-5.7620101 -1.9739007 -0.53287023 15
-6.8441329 -2.344605 1.4062623 1
-6.632021 -2.2719414 -0.36739841 35
-8.8325167 -3.0257688 2.1554811 40
-5.0756173 -1.738762 -0.093649611 21
-7.3505564 -2.5180912 2.0819404 39
-1.7327843 -0.58685219 -0.49020326 5
-5.077868 -1.7197514 0.093579806 22
-2.0358706 -0.68950027 -0.49624202 2
-6.6966624 -2.267998 0.37053856 44
-5.098762 -1.7268277 -1.0463965 10
-6.7067542 -2.2714157 0.61950302 47
-6.6794219 -2.2621591 -1.116942 1
-6.7160339 -2.2745588 0.87063462 42
-6.633306 -2.2465405 -0.85991007 10
-6.7673583 -2.2919409 1.1316469 36
-5.7273493 -1.9397149 -0.52903533 25
-6.8634324 -2.3244789 1.4085521 1
-6.6682868 -2.2583878 -0.36896849 40
-8.8577909 -2.9999199 2.1590803 39
-5.07408 -1.7184684 -0.093509994 23
-7.3062382 -2.4744465 2.0669289 28
-1.7329903 -0.58018678 -0.48968562 5
-5.0686698 -1.696937 0.093300566 23
-2.0160899 -0.67496556 -0.49084321 3
-6.7272654 -2.2522173 0.37179464 42
-5.0824184 -1.7015399 -1.0418171 7
-6.7354245 -2.2549489 0.62142044 42
-6.6760383 -2.2350669 -1.1150649 1
-6.7502866 -2.2599244 0.87404692 21
-6.6975794 -2.2422786 -0.86722225 7
-6.8071618 -2.2789655 1.1369656 38
-5.7850966 -1.936789 -0.53374177 20
-6.9087381 -2.3129723 1.4161843 1
-6.6912808 -2.24017 -0.36980587 40
-8.8626642 -2.9671261 2.1577306 36
-5.0648775 -1.6956673 -0.093230754 23
-7.3441415 -2.4587407 2.075211 32
-1.7478433 -0.57838231 -0.49330911 5
-5.0669689 -1.6767209 0.093160942 23
-2.027684 -0.67098504 -0.49309272 3
-5.4438157 -1.8014239 0.30051306 60
-5.0827355 -1.6819383 -1.0406723 7
-6.788651 -2.2464461 0.62560391 39
-6.717556 -2.2229199 -1.1206965 3
-6.7732105 -2.2413368 0.87599683 43
-6.7166729 -2.2226279 -0.86868471 7
-6.8488317 -2.2663608 1.1425973 40
-5.8239779 -1.9272243 -0.53670508 15
-6.9242253 -2.2913094 1.4177108 1
-6.7293978 -2.2268386 -0.37148061 40
-8.861867 -2.9324985 2.1550312 30
-5.0745625 -1.6792337 -0.093300566 23
-7.3728538 -2.4397659 2.0809052 30
-1.744343 -0.57047617 -0.49175617 6
-5.0613871 -1.6552941 0.092951514 26
-2.0207529 -0.66087425 -0.49084321 3
-5.4462738 -1.7811688 0.30030373 52
-5.0587196 -1.6544218 -1.0345664 7
-6.8191757 -2.2301676 0.62769568 37
-6.7346625 -2.202528 -1.1222608 3
-6.8206148 -2.2306383 0.88111538 34
-6.7508049 -2.2078073 -0.87209702 7
-6.8660889 -2.2455101 1.1441617 36
-5.8079453 -1.8994513 -0.53461331 5
-8.8802834 -2.9042394 1.81612 12
-6.7769947 -2.2163725 -0.37367871 38
-8.8794584 -2.9039698 2.1568308 28
-5.0651884 -1.6565373 -0.093021326 22
-1.7315202 -0.5599333 -0.48761508 5
-5.0573349 -1.6354244 0.092776991 24
-2.0322044 -0.65716755 -0.49309272 3
-5.0529699 -1.6340129 -1.0322766 5
-6.8454909 -2.2136724 0.62943876 30
-6.77952 -2.1923389 -1.1285182 3
-6.8676391 -2.2208347 0.88623387 48
-6.7883101 -2.1951814 -0.87599683 7
-6.8603406 -2.2184744 1.1419716 33
-5.8274822 -1.8844721 -0.53583348 17
-8.8861294 -2.8735673 1.8153567 13
-6.8128128 -2.203105 -0.37524882 33
-7.0978813 -2.2952898 1.7222253 30
-5.0402107 -1.6298869 -0.092462853 22
-7.0749693 -2.2878804 1.992389 18
-1.7371446 -0.55506176 -0.48865035 5
-5.0420599 -1.611066 0.092393041 26
-2.0456235 -0.65362865 -0.49579212 2
-5.4468565 -1.7404089 0.29967567 35
-5.0474224 -1.6127795 -1.029987 5
-5.3785381 -1.7185794 0.49399874 20
-6.8360543 -2.1842928 -1.1366528 3
-6.8999314 -2.2047031 0.88940245 45
-6.8110585 -2.176306 -0.87794673 7
-6.888741 -2.2011275 1.1454132 30
-5.8662887 -1.874428 -0.53879678 15
-7.095191 -2.2670937 1.4478587 28
-6.8509016 -2.1890368 -0.37692356 33
-8.9138699 -2.8482075 2.16043 13
-5.03825 -1.6098487 -0.092323229 22
-7.0957937 -2.2672863 1.9960124 10
-1.742756 -0.55015773 -0.48968562 5
-5.0323973 -1.5886402 0.0921138 26
-2.0311675 -0.6412043 -0.491743 2
-5.4414711 -1.7177777 0.29904765 54
-5.0530214 -1.5951509 -1.029987 3
-5.344605 -1.6871989 0.49033821 16
-6.837986 -2.1586332 -1.1357142 1
-6.9321942 -2.1883731 0.89257109 43
-6.86026 -2.1656647 -0.88330901 10
-6.9189873 -2.1842039 1.1491675 9
-5.9544945 -1.8797302 -0.54629219 2
-8.890996 -2.8067327 1.8123038 22
-6.8794518 -2.1717231 -0.37807494 35
-8.9311905 -2.8194215 2.1622295 22
-5.0400248 -1.5910481 -0.092253417 22
-8.7027264 -2.7472994 2.4453223 7
-1.7446657 -0.54407102 -0.48968562 5
-5.0188217 -1.5651109 0.091764756 20
-2.031533 -0.63353014 -0.4912931 3
-5.41502 -1.6886648 0.29726824 58
-5.0285711 -1.5681512 -1.0238811 5
-5.3713846 -1.6750571 0.49225563 42
-6.9095969 -2.1547461 -1.1463518 1
-8.9049911 -2.7770061 1.145328 39
-6.8829384 -2.1464326 -0.88525891 10
-8.9311819 -2.7851739 1.4817473 25
-5.5463729 -1.7296269 -0.50829232 2
-8.9213562 -2.7821095 1.8165016 22
-6.9041505 -2.1530476 -0.379017 33
-8.9353971 -2.7864883 2.1608799 18
-5.0302758 -1.5686829 -0.091974184 25
-8.7362385 -2.724381 2.4520516 6
-1.7501527 -0.53942055 -0.4907209 6
-5.023984 -1.5484593 0.091764756 26
-2.0392096 -0.62851179 -0.49264282 2
-5.3766909 -1.6571683 0.29486078 45
-5.0168581 -1.546263 -1.0204465 3
-5.3692937 -1.6548884 0.4915584 33
-6.928031 -2.1353121 -1.148229 1
-8.9236364 -2.7503843 1.1465468 39
-6.93365 -2.137044 -0.89086491 7
-8.9328184 -2.7532144 1.4804958 18
-5.5482702 -1.7100513 -0.50794369 22
-8.9455414 -2.7571361 1.8195546 15
-7.2376332 -2.2307355 -0.39691588 35
-8.9576244 -2.76086 2.1640291 4
-5.0125184 -1.5449253 -0.091555327 22
-7.1704569 -2.210031 2.0105064 24
-1.7390881 -0.52937013 -0.48709744 5
-5.0140543 -1.5262544 0.091485515 22
-2.0376625 -0.62025481 -0.491743 3
-5.0090775 -1.5247395 -1.0177752 5
-8.9278994 -2.7176101 0.81647497 26
-3.0387442 -0.92497933 -0.50309324 1
-8.93888 -2.7209525 1.147278 11
-7.1603246 -2.1795688 1.1854603 21
-5.5522995 -1.6900936 -0.50776935 5
-7.172729 -2.1833446 1.4573991 37
-7.2606611 -2.2101109 -0.39775327 35
-7.1681724 -2.1819577 1.7298737 33
-5.0102282 -1.5250897 -0.091415703 22
-7.1522536 -2.1771121 2.0032594 37
-1.7465671 -0.52465987 -0.48865035 5
-5.0023785 -1.502689 0.091171369 26
-2.0473876 -0.61502481 -0.49354261 2
-5.3482423 -1.6065848 0.29266268 45
-5.0165129 -1.5069349 -1.0181568 3
-7.1613073 -2.1512201 0.65419102 39
-3.042114 -0.91383553 -0.50309324 1
-7.1673989 -2.1530502 0.91889483 39
-7.1644812 -2.1521738 1.1848346 33
-5.842772 -1.7551389 -0.53374177 2
-7.150599 -2.1480036 1.4512932 45
-7.2400208 -2.1748652 -0.39618319 38
-7.1649237 -2.1523066 1.7271742 41
-4.9966331 -1.5009631 -0.091066658 22
-7.147234 -2.1469927 1.9996359 45
-1.7502401 -0.51910937 -0.48916799 5
-4.9960904 -1.4818066 0.090961941 26
-2.0327075 -0.60288721 -0.48949349 2
-5.342329 -1.5844986 0.29203463 43
-5.0085669 -1.485507 -1.0154855 3
-7.1477613 -2.1199775 0.6522736 37
-3.0225594 -0.89647067 -0.49933881 1
-7.1501298 -2.1206801 0.91572624 45
-7.1729674 -2.1274536 -0.9186511 4
-7.1567993 -2.1226583 1.1823317 41
-5.8908858 -1.7471969 -0.53757662 2
-7.1335845 -2.115773 1.4463322 42
-7.1479979 -2.1200478 -0.39074025 61
-7.1443686 -2.1189713 1.7204256 38
-4.9865046 -1.4789635 -0.090787418 22
-7.1269035 -2.1137912 1.9918714 41
-1.7613114 -0.51571095 -0.49175617 6
-4.9954753 -1.4626722 0.09085723 23
-2.0422802 -0.59797847 -0.4912931 3
-4.9948802 -1.4624981 -1.0116693 3
-7.1340847 -2.0888557 0.65035617 30
-7.1622696 -2.0971084 -1.1820189 1
-7.1365328 -2.0895727 0.91304511 49
-7.1384377 -2.0901303 -0.91328883 7
-7.1357284 -2.0893371 1.1776386 38
-7.162766 -2.0972538 -0.65297085 2
-7.1258535 -2.0864458 1.4432793 44
-7.1342702 -2.0889101 -0.38958886 35
-7.1255383 -2.0863535 1.7141271 38
-4.9916368 -1.4615483 -0.090787418 22
-7.1231141 -2.0856438 1.9887656 46
-1.742686 -0.50365955 -0.48606217 5
-4.9851818 -1.4407841 0.09057799 22
-2.0518436 -0.59301025 -0.49309272 3
-5.4741406 -1.5820998 0.29862896 20
-4.9980688 -1.4445087 -1.0112877 3
-7.1432467 -2.0644937 0.65053046 30
-7.1809325 -2.0753853 -1.1838961 1
-7.1170845 -2.0569324 0.9096328 43
-7.1189919 -2.0574837 -0.90987653 28
-7.1296945 -2.0605769 1.1754485 45
-7.1293206 -2.0604689 1.442516 42
-7.1165748 -2.0567851 -0.38822812 16
-7.1365218 -2.0625501 1.7150269 33
-4.9736552 -1.4374528 -0.090368561 22
-7.1767488 -2.0741761 2.0017066 32
-1.7462913 -0.49810326 -0.48657981 6
-4.9805655 -1.4206313 0.090403467 24
-2.0445311 -0.58317167 -0.49084321 3
-5.4969158 -1.5679123 0.29957101 45
-4.9823132 -1.4211297 -1.0070899 3
-7.1255016 -2.0324419 0.64826441 40
-7.1767354 -2.0470555 -1.1820189 1
-7.139493 -2.0364327 0.91158271 37
-7.1108584 -2.0282652 -0.90792662 28
-7.1273456 -2.0329678 1.1738843 28
-7.0661068 -2.0155003 -0.64286077 2
-7.166677 -2.0441866 1.4486219 33
-7.1102662 -2.0280962 -0.38749543 54
-7.1661663 -2.0440409 1.7204256 30
-4.9555669 -1.4135007 -0.089949705 22
-7.200665 -2.0538812 2.0063653 29
-1.7573173 -0.49462157 -0.48916799 4
-4.9720201 -1.3994447 0.090159133 23
-2.0596852 -0.57972729 -0.49399251 3
-4.9985824 -1.406921 -1.0093796 1
-7.1421423 -2.0102561 0.64913595 27
-7.1343985 -2.0080764 -1.1738843 1
-7.1866856 -2.0227933 0.9167012 37
-7.1159844 -2.0028934 -0.9076829 28
-7.1876402 -2.023062 1.1826446 28
-7.0884418 -1.9951413 -0.64425522 5
-7.2058959 -2.0282004 1.4551094 34
-7.1249928 -2.005429 -0.38791412 66
-7.2314091 -2.0353813 1.7343726 33
-4.9604707 -1.3961939 -0.089949705 22
-7.2282457 -2.0344911 2.0120592 27
-1.7478647 -0.48538288 -0.48606217 4
-4.9556799 -1.3761948 0.089775182 26
-2.0616965 -0.57253408 -0.49399251 3
-4.9769797 -1.3821098 -1.0040369 1
-7.2047882 -2.0007732 0.65419102 29
-7.1223311 -1.9778749 -1.1707555 1
-7.210917 -2.0024753 0.91889483 36
-7.1324959 -1.9806976 -0.90890157 23
-7.2308221 -2.0080028 1.1885891 27
-5.9665556 -1.6569154 -0.54176009 2
-7.2242818 -2.0061867 1.4573991 12
-7.1281009 -1.979477 -0.38770476 30
-4.9576068 -1.3767298 -0.089810081 22
-8.8323936 -2.4527602 2.4561927 3
-1.7663172 -0.48387247 -0.4907209 6
-4.9604535 -1.3588878 0.089775182 24
-2.0430079 -0.55967033 -0.48904359 2
-4.9893479 -1.3668032 -1.0055634 1
-7.2386308 -1.9829814 0.65663135 14
-3.0635328 -0.83923727 -0.50309324 1
-9.0615768 -2.482367 1.1536152 6
-7.1661701 -1.9631313 -0.91231388 21
-9.0724773 -2.4853532 1.4898819 7
-9.0773935 -2.4867001 1.8294766 6
-7.2139449 -1.9762188 -0.39199632 83
-9.0911036 -2.4904556 2.1761765 6
-4.9623823 -1.3594161 -0.089810081 22
-7.5329328 -2.0636039 2.0928109 1
-1.767912 -0.4780125 -0.4907209 7
-4.9649324 -1.3424309 0.089775182 24
-2.0429714 -0.55238372 -0.4885937 2
-2.4542844 -0.66359556 -0.49419531 1
-9.0838661 -2.4561183 0.82327312 7
-7.2462292 -1.9592535 -1.1889019 1
-9.0908384 -2.4580035 1.1562964 11
-7.1975522 -1.9460922 -0.91548252 21
-9.0863905 -2.4568009 1.4908204 7
-7.1124573 -1.923084 -0.64460385 2
-9.1178083 -2.465296 1.8359642 4
-7.2127461 -1.9502004 -0.39157763 45
-9.1068373 -2.4623294 2.1779761 6
-4.9436984 -1.3366896 -0.089391224 22
-7.5527887 -2.0421419 2.0964344 37
-1.7621033 -0.46984753 -0.48865035 6
-4.9579949 -1.3220007 0.089565746 24
-2.0448873 -0.5452491 -0.4885937 2
-2.4679677 -0.65805936 -0.49648499 1
-9.0981598 -2.4259348 0.82379609 5
-3.0386353 -0.81022227 -0.49808735 1
-9.1223803 -2.4323931 1.1592212 9
-9.0949106 -2.4250686 1.4908204 5
-5.9833007 -1.5953884 -0.54176009 2
-9.1320496 -2.4349713 1.837109 4
-7.3700371 -1.965148 -0.39974204 21
-9.1379719 -2.4365504 2.1833749 4
-4.9367409 -1.3163335 -0.089181796 21
-7.535605 -2.009295 2.089705 29
-1.7543908 -0.46123779 -0.48606217 5
-4.9471078 -1.3006184 0.089286514 27
-2.0543168 -0.54008973 -0.49039331 2
-4.9651828 -1.3053705 -0.99793106 1
-9.1104259 -2.3951747 0.82414472 5
-9.0020657 -2.3666863 -1.4742384 3
-9.1461735 -2.404573 1.1611711 9
-9.1377087 -2.4023473 1.4964521 5
-5.2681694 -1.3850271 -0.4765676 2
-9.1404934 -2.4030797 1.837109 4
-5.2501397 -1.3802869 -0.28449824 53
-9.1709223 -2.4110796 2.1892238 3
-4.937438 -1.2980762 -0.089111984 21
-7.5257578 -1.9785578 2.0850463 41
-1.7578603 -0.45559567 -0.48657981 6
-4.9225817 -1.2758164 0.088762939 24
-2.0524168 -0.53193772 -0.48949349 2
-4.9697094 -1.2880307 -0.99793106 1
-9.1245174 -2.3648584 0.82466763 5
-3.0748129 -0.79691857 -0.50309324 1
-9.1487465 -2.3711381 1.1604398 8
-9.1651602 -2.3753922 1.4995807 5
-5.2613997 -1.3636301 -0.47552174 2
-9.152627 -2.3721437 1.8378723 3
-7.4493113 -1.9306848 -0.40330088 16
-9.2132387 -2.3878529 2.1973219 3
-4.934196 -1.2788266 -0.088972367 21
-7.5475788 -1.9561534 2.0891874 40
-1.7556964 -0.44850054 -0.48554453 6
-4.9211926 -1.2571408 0.088658221 26
-2.0429323 -0.52187628 -0.48679408 2
-2.5051582 -0.63995391 -0.50259089 1
-9.1636028 -2.3408835 0.82745659 3
-3.0278141 -0.77346873 -0.49495864 1
-9.1685076 -2.3421366 1.1619023 4
-7.5009818 -1.9161595 -0.95058089 11
-9.1925354 -2.3482745 1.5027095 5
-5.2931533 -1.3521599 -0.47796211 2
-9.1950903 -2.3489273 1.8447413 3
-9.1182709 -2.3293033 -0.49321404 4
-9.2252932 -2.3566427 2.1982217 3
-4.9308801 -1.2596154 -0.088832751 21
-7.6329741 -1.9498776 2.1109281 42
-1.7684916 -0.44519892 -0.48865035 5
-4.9197335 -1.2384905 0.088553511 24
-2.0617497 -0.51902348 -0.49084321 3
-4.9366956 -1.2427605 -0.98953545 1
-9.1794462 -2.310828 0.82815385 3
-3.0649765 -0.77157521 -0.50059026 1
-9.207428 -2.3178718 1.1658021 4
-7.4768243 -1.8822109 -0.94668108 7
-9.2045078 -2.3171368 1.5033352 3
-9.1813784 -2.3113143 -0.82832819 2
-9.2146568 -2.3196917 1.8470311 3
-9.186388 -2.3125753 -0.49645889 92
-7.7651048 -1.9547824 1.8486477 33
-4.9197335 -1.2384905 -0.088553511 23
-7.6472278 -1.9251081 2.1129987 39
